# 3D point list with one line of data per point:
#   POINT3D_ID, X, Y, Z, R, G, B, ERROR, TRACK[] as (IMAGE_ID, POINT2D_IDX)
# Number of points: 388, mean track length: 4.2680583779789396
1578 7.6676058428107119 8.0528230137500518 27.14363181087419 217 222 226 2.1440018616532242 6 7170 7 7190 4 6968 17 3861 15 3687 16 3908 13 4026 2 6789 12 4233 19 3780 9 3832 1 6681
1579 -8.3345825045589006 8.2902851334571448 27.521829247206405 255 255 253 0.91833017659321492 7 7192 4 6966 13 4175
1581 -3.3602195658999534 11.410411180733677 24.769290405945004 217 210 204 1.5320009243063861 6 7069 7 7203 8 7071
1582 5.8779392898411755 12.443266522470223 26.246482635390539 246 252 252 1.5765264715309459 11 3942 17 3722 7 7205 13 4033 8 7072 2 6798 12 4397 19 3795 1 6877 10 3900
1587 -0.75448076104810535 0.086161320052543219 27.107644724811571 65 71 57 1.3401783642115845 7 7269 13 3962
1588 -13.586185009930444 5.0820366124643304 28.984933439583827 105 96 65 1.4596794909668604 17 3841 7 7298
1589 -13.919965775509517 5.9905739520537065 30.117491606813545 58 50 39 0.85650178425603574 4 6801 16 3882
1590 -13.919965775509517 5.9905739520537065 30.117491606813545 58 50 39 0.85650178425603574 4 6802 16 3881
1592 12.36961060163001 12.809880931857267 32.860236415532334 126 118 107 1.528403467243129 14 3987 17 3866 7 7321 4 6973 15 3843
1593 10.110961688809772 -11.054407626565702 29.839665239548172 80 77 62 1.5092481440082528 6 7183 17 3874 7 7328 4 6984
1595 6.6079741742638083 -6.3449059616551793 23.07931884822586 155 202 194 2.5587931438170268 14 3879 7 7339 4 6996
1597 3.432601075751629 -4.562749982858378 25.517619544134664 80 113 76 1.227297491844263 14 4018 7 7349 4 7013
1598 -6.4818620654440311 3.1539171692619834 30.62476514534433 41 54 36 1.6950232608228517 7 7385 6 7225 4 7052 5 4759
1599 0.14707968676291344 5.7510766723878319 33.247497631200524 49 51 48 1.1670520061306093 6 7155 7 7395
1601 6.3484446035325961 7.9111946358585561 26.730664098520155 254 255 255 1.4735943286835644 6 7251 7 7408 4 7074 2 6910 9 3941 10 3997
1603 -8.4260637395834763 -11.978738200880544 34.590862042630064 172 177 172 1.6866913808269786 17 3948 7 7415 4 7081 16 4143 8 7271
1605 -3.9211987905955921 7.1262533984492249 29.396610534493135 93 105 83 0.11247662935766059 14 4166 5 4900
1607 -4.5314123152592707 -6.8684690644738362 29.090320814308509 176 197 161 1.1860547583003873 14 4144 7 7473
1608 -9.0444008272363856 3.6642551368839902 31.28585891056899 46 60 37 1.8607693935861134 14 4159 13 4362
1609 3.4746669282888369 3.4215634359748441 29.450151516746352 50 52 41 1.0666009933146567 11 4270 5 4927
1610 1.2241926918631625 6.1214220507897945 29.846826281995611 24 26 23 1.7142731658604078 6 7356 7 7499
1611 15.866472237399211 4.7008065411051261 23.00456223141137 208 176 135 0.93579389644780875 6 7357 8 7311
1612 6.882016962321666 12.05655347095191 26.587369638669312 154 149 143 0.75296748001426606 6 7371 7 7509
1613 -12.92687353253004 -11.02841441041349 37.633309671037594 174 177 168 1.5402621318966816 6 7373 7 7512 4 7154 5 4859 12 4739 13 4388
1616 2.5163067967353001 1.9306001897072449 28.888621472296794 121 157 119 2.2506300010033953 15 4067 13 4421 16 4266 19 4160
1617 -2.532040422355633 6.0284533311160349 19.484027123831929 255 255 255 1.2175315431401319 6 7434 7 7567
1618 1.2441163953665952 8.6942457493312446 27.537355856052269 214 214 214 1.5285135499436671 6 7443 7 7589 8 7433 12 4810
1621 -1.5165477708361177 7.2303616428935555 33.462394900132381 8 12 11 1.2007673968648198 17 2934 7 5936 7 6406 15 2415 13 3243 3 6124 18 3023
1622 -10.302702694371916 -10.560386928163869 35.465341057251877 130 127 123 1.6513411857039655 6 6717 7 6824 11 3762 17 3343 4 6477 5 4194 15 3360 16 3541 3 6791 7 7042 2 6650 12 4269 1 6718 10 3733 20 3789
1623 9.9540498579505794 -4.1850549843432088 20.949116956469393 93 100 81 1.8909602445951179 7 5447 17 1891 4 5170 15 330 13 2168
1625 22.657206405566999 -11.036158433004433 52.62111222993034 35 23 11 1.4177203815986779 6 514 7 660 4 569 3 3546 9 291 1 592
1626 22.657206405566999 -11.036158433004433 52.62111222993034 35 23 11 1.4177203815986779 6 515 7 661 4 570 3 3545 9 290 1 591
1627 -11.603766241410581 4.1025316856598728 25.453672191687808 74 68 43 1.6721209738051259 14 1476 4 4716
1629 -1.1988162144806755 -13.037914453965742 32.535662829228286 105 112 104 1.7679285434815013 7 3570 8 3452 3 3330 2 3304 9 48 10 22
1633 1.050462516014238 -0.19703578800296864 28.493697879840191 55 78 52 2.9765088211313726 14 944 7 4372
1639 -12.086287815537027 3.382584635460129 24.780740917344023 46 43 30 1.2438014963629047 7 5854 5 1814 3 4691
1640 43.793939868243179 11.570049311768436 70.131326037606058 212 182 144 1.4397043462108741 6 5798 11 1595 7 5873 4 5538 17 2413 3 5600 19 1634 10 1536
1641 44.840071973618684 11.550250288059772 70.260405507507002 209 181 144 1.5523212084908344 6 5799 11 1596 7 5874 4 5539 17 2414 3 5601 19 2519 20 2581
1643 44.193752476167191 10.665206198904345 69.985806567029755 74 57 37 1.6094782816813189 6 6270 11 2552 7 6386 4 6019 17 2931 3 6103 2 5976 19 3015 20 3124
1645 -3.767990995566302 7.390938246542988 18.575470606606316 180 189 159 1.1464290289652428 6 6659 7 6772
1646 -3.767990995566302 7.390938246542988 18.575470606606316 180 189 159 1.1464290289652428 6 6660 7 6773
1647 -13.627186097466751 8.0622025096823755 30.027011254293544 19 18 16 2.5003313622830037 7 6991 4 6398 5 4121 3 6740 2 6604
1649 12.739592228065277 -10.033635543325955 35.316616139025896 5 7 6 1.2924852380287004 17 3884 7 7338
1650 10.325574115268568 12.116044838340491 30.323189948990592 153 140 124 1.9353789565257011 6 7398 7 7542 4 7226 13 4381 8 7360 3 7261 2 7125
1653 -15.009864164041769 -11.826842640646898 28.46707841180886 255 254 255 0.53896548369952013 4 64 16 65 15 62
1654 -10.086180428444322 -13.632162771579218 32.786628641679258 200 210 180 1.8062564569027189 6 3435 4 79 5 43 3 3281 2 23
1655 -0.50907407364106172 -13.13749998951203 31.482933376975616 49 49 47 0.82582008028164522 7 75 4 82
1656 -9.6567546488379357 -12.96762657927818 33.030273930411155 140 142 126 2.5721170587211466 6 105 4 132 3 93 2 54
1659 -6.3758075232900691 -13.144708558160032 33.140123264784542 242 253 239 1.7499764660832424 6 3460 4 137 5 81 3 97
1663 -13.281325503137639 -10.311077134565149 28.556204188576615 56 64 40 1.1845335095294616 6 153 4 192 7 144
1664 -13.053555408074779 -10.146951997514803 28.131915364342007 56 64 40 0.59950072155463852 7 143 8 113
1665 4.2661034586232267 -9.5827387524153131 25.905907887287835 70 99 53 2.1277649439337845 6 143 4 202 7 3598 16 119 3 175 2 3334
1667 -13.688060281870502 -10.154956727255643 28.835286220217434 50 60 36 2.2532741778747036 14 95 6 183 8 112 11 30 3 3357 4 214 1 98 2 113
1668 -12.87537901570261 -10.213522213369112 28.918863928811078 40 47 26 0.15412911094989723 7 3584 14 97 4 216
1669 -12.695452663136111 -10.103352871615522 28.579049598857246 40 47 26 1.1514481876611398 7 3585 14 98 4 217 13 84 18 1874
1670 -12.972494415100536 -10.115802141968116 29.636300000565491 167 169 144 1.6379476794712597 7 3601 4 222 13 99 18 64
1671 6.4592490021387414 -8.634708407305288 23.977951706347728 222 248 224 1.6285203688692764 7 190 4 234 3 191
1673 -10.278933301313415 -10.798569755768533 35.369885404840737 132 135 126 1.3949753403124641 6 240 2 165 19 58 1 152
1674 6.7263512590506336 -10.406793322230788 35.466032372562971 24 19 11 1.8662388120963065 7 265 4 279
1675 7.4248684264090627 -6.7676427575344196 21.202730370306316 218 245 207 2.2193807766363407 6 232 7 271 4 285 2 3389 13 138
1676 1.6596420810496417 -9.5950290480296623 34.215202113615007 102 119 101 1.6068521413830676 7 279 4 292 3 257
1677 6.7245900206338503 -6.6119708380797526 22.299539567932005 163 204 196 0.94699303355938769 7 296 4 309 13 151 3 3443
1678 -15.346140745503657 -7.9680871079938633 30.632948952191022 164 160 125 1.2252187314727558 7 311 4 325 3 281
1679 -15.541697762505759 -8.0834016237426098 31.348455234808643 171 147 106 0.5942960334129529 6 307 7 316 4 328
1680 -7.3049816525912181 -7.0114190814406721 26.233098908143731 196 163 127 1.2370724526787134 7 327 4 332 1 234
1681 -1.7919486707370094 -8.481042564991375 32.579839601182385 233 255 216 1.5563193132489577 7 345 4 338 3 295 8 326
1682 -1.5514165693225914 -8.2355096527880338 32.520658637237759 220 254 193 1.177282847078541 6 325 7 347 4 341 8 3558
1683 6.5367617227607511 -6.4160207389253907 22.441154931944148 162 208 198 1.3626575254950204 7 294 4 386 9 141
1684 -13.743848122625518 -7.4516503741616589 29.715923732989648 186 155 108 1.4952013958543622 7 325 4 409 8 292
1685 -13.743848122625518 -7.4516503741616589 29.715923732989648 186 155 108 1.4952013958543622 7 326 4 410 8 293
1686 -7.3870119396442844 -5.5521548786290777 23.882388415728663 217 189 140 1.5462491237582225 4 490 16 269 6 3648 8 3587
1687 -7.0921514724272932 -5.7142620044730545 23.699750052497166 72 91 46 0.74321524404853478 6 367 4 491 8 392
1688 -5.5535435908044573 -6.0233373028677608 24.634222682334169 41 44 41 0.65848049800977071 7 409 4 507 8 401 2 406 3 372 1 300
1689 -4.2956208403374774 -5.4828533193549225 22.779676943421642 139 165 95 1.0336513622482972 7 415 4 514 8 412 19 124
1690 -2.9445176776862638 -7.2739336999892856 33.552809186131057 80 108 80 1.370779166376072 6 484 4 536 3 474
1691 4.2292641833868165 -4.6784771381311998 18.735522073654533 245 255 248 0.56866789064669976 7 459 4 559 3 620
1692 21.135654841817722 -10.83961543531605 52.151272013980737 54 35 18 1.5875218877522077 6 3672 4 567 8 3726 3 533 2 599
1693 22.008728742192691 -11.076382856470698 54.398871551674063 126 102 74 0.70854842921160377 6 5359 4 568
1694 -15.454904868889724 -6.2196113800881703 30.0585329209759 48 56 33 1.2886435660314279 14 259 4 577 3 3493 2 386 1 379
1695 -7.2181675802232306 -5.4224956900586472 24.184804770409738 73 79 40 0.41432629721113412 7 470 4 589 13 243
1696 -7.2900011439493531 -5.4118498241391375 25.069030763106536 230 255 218 1.3135142561477733 6 3682 7 478 4 594 5 333
1697 -2.336990414639597 -6.7563830253339265 33.446204079454212 75 107 80 1.2926205258339891 7 621 4 632 3 577
1698 -0.91749280804138134 -6.3784244959786225 34.758078429597894 18 24 24 2.283198186851624 4 715 18 340 13 409
1699 -9.9236391608033259 -4.3485544737573418 24.054415195616969 79 87 50 1.6793723272084293 6 635 7 669 4 767
1700 -9.5940802512372088 -4.1937064165028328 24.158122515439754 255 255 219 1.1757596034907041 6 788 7 779 4 772
1701 -8.4875363313311354 -4.6038465721902071 25.408478089398042 247 248 227 0.7641859807706296 7 683 4 779 5 438
1702 -0.73736433755051733 -5.5379248776734853 33.992334714411534 3 11 10 1.9504339716412677 7 847 4 822 2 769 1 757
1703 8.6808349492506736 -5.3301230874189098 34.561336553344645 59 86 74 2.1645013643665401 7 1061 4 882 5 593
1704 -11.034157462974319 -4.117428560229329 24.117518111203363 77 65 57 0.90777275730178175 6 782 4 933 3 700
1705 -9.5206845160764928 -4.0077841664819429 23.847667165519436 255 255 230 1.4453039232037996 6 789 4 944 3 3644 8 3740 2 3593 1 3611
1706 -4.9186609317897672 -4.1295110997212019 25.498535332648753 38 54 41 1.452438401147462 7 812 2 858 4 977
1707 1.3456951528669825 -3.2063812713357263 18.940016464175287 93 132 65 2.0442154590991675 6 865 7 863 4 1014
1708 5.0165135951140734 -4.2162365073759451 25.424754488222664 141 190 171 1.0491378679728065 7 880 4 1027 8 880
1709 7.9029593546805899 -5.0358316025315846 33.877904512534407 66 88 76 2.0297938842911445 7 1057 4 1037 14 548
1710 -2.8965944718748502 -2.9003128376749352 20.034210499036991 119 163 74 0.073875557501830669 6 972 4 1097
1711 -2.8965944718748502 -2.9003128376749352 20.034210499036991 119 163 74 0.073875557501830669 6 973 4 1098
1713 9.7274483781517329 -3.4324514553690952 22.564628966389137 172 141 86 1.2260884280397104 7 1082 4 1214 8 1064
1714 7.4237491300825313 -3.0327403111188183 22.687595340354459 148 176 116 0.92398012354452097 6 3988 4 1316
1715 -6.5130030437997855 -2.600442659662626 34.450770674594473 214 243 185 1.5253444592445511 7 1347 4 1360 2 1349 1 1157
1717 -5.6780530544488679 -2.4661328080897151 34.327576370053009 171 202 160 1.4325017789176511 7 1475 4 1478 8 1459 2 1355 1 1288
1718 -5.6780530544488679 -2.4661328080897151 34.327576370053009 171 202 160 1.4325017789176511 7 1474 4 1479 8 1458 2 1354 1 1287
1719 6.1035218745639703 -1.3323244401413765 25.466857283833974 28 39 22 0.80081446471578843 6 1638 7 1683 4 1653
1720 9.9488626696095395 -0.29666051373878688 18.263413396816148 88 73 52 0.37350162921735475 7 1967 5 1246
1721 -8.7476468951614539 1.0420131774933059 28.766187184857287 86 108 75 1.9228789868182237 7 4477 17 1054 4 2072 16 1189 13 1067 18 1110 12 1347 19 1186 20 1137
1722 -7.5978730333533635 1.0444451982152336 31.219632912837895 186 196 157 0.93458849648565645 7 2172 4 2082 5 1279
1724 -12.738316578195786 2.8356423964624646 29.78222071942761 136 138 131 0.77376969911731863 7 5782 8 4646
1725 -9.1351331497151573 3.2577448359999219 29.806483183497523 60 57 41 1.4446634090779591 6 2608 4 2580 3 2508 7 2700
1726 -7.2485711705994094 3.5182153583885936 30.538667361736191 39 47 36 1.1920674033009371 7 2706 4 2582 1 2483
1727 2.5897193538530678 3.0810297416369679 28.549162397936303 56 66 40 1.4509101031622242 7 2760 4 2619 3 2560 8 4766
1728 8.1865909254072182 2.7740575550000779 25.767802167461323 125 127 104 1.882039816278807 7 2795 4 2631 3 2682
1729 -9.2977906257907676 3.9461824340411606 29.854265775219748 55 58 37 1.3842675702350897 7 2827 4 2673 3 4700 8 4810 12 1785 19 2465
1730 -8.5728015522555854 4.0149291472241826 31.059338981662442 7 7 11 0.78601961176528601 7 2828 4 2675 3 4628
1731 -7.5403741828111697 3.5526349400958228 30.047928782141714 54 72 46 1.0284679041762901 6 2728 7 2831 4 2678
1732 -7.7202826942389038 3.935121598906977 29.995635056092052 116 135 72 0.31320098066801749 7 4869 4 2682
1733 -5.8652858707479139 3.4495160778448346 29.186063229886528 107 124 70 0.77831867171821212 7 2840 4 2691 12 1805 8 4828 19 1446 6 2733
1734 -5.0474014459706895 3.891480326962661 29.059293104165025 34 48 23 1.5181628107224343 7 2846 4 2699 2 2686 9 1436
1735 -1.0373484433339768 3.7652718820321289 28.832346235150741 86 101 61 1.8487376647482925 6 2757 7 2869 4 2720
1736 2.4164629808152935 3.4020183459422135 28.778220322692768 49 62 25 1.2396778214844644 6 2771 4 2729 5 1766 16 1556
1737 -9.0654975083489333 4.5011246059633558 30.181907867566434 93 112 55 0.7879959887326824 6 2847 7 2946 4 2798 3 2721
1738 -8.1512879654087627 4.6807348799179636 29.9816008527538 48 67 35 0.90131522230986205 7 2960 4 2800 8 2944
1740 1.3839303438845798 4.5680384960741955 29.540016553132958 109 105 78 1.8970597002895282 7 4948 4 2831 13 1577 8 4893 3 4771 2 4613 1 4658 10 2522
1741 1.4029848904025828 4.6064127605447265 29.67975993691142 109 105 78 2.0610051821140103 7 4949 13 1576 8 4892 3 4772 2 4612 12 2953 11 2546 19 2497 9 2450 1 4659 10 2521 20 3123
1742 3.2533284463140539 3.8974984647984638 29.173865890965349 45 43 30 0.75469927700540806 7 4904 3 4728 12 1834
1745 -8.9944256776467011 4.9898135763629323 30.218626176773881 12 22 12 1.1406735358858933 7 3040 4 2877 13 1566 18 1545
1747 -7.6919328046054734 5.2309686325934885 30.128235277500309 60 79 48 0.97005670068977878 17 1466 4 2882 2 4649
1748 1.6914038499952029 5.0382296054324396 29.026345595159668 155 135 108 1.1816330536580655 6 2962 4 2896 13 1617 12 1948
1749 -10.224343790946195 6.0170087281054174 30.985757239410454 24 23 19 1.4093393175164013 7 3085 17 1492 4 2913 15 1499 16 1658
1750 -9.1252077748741893 5.5320345784448044 30.809012848409189 23 35 18 1.6077279940873186 6 4943 4 2916 5 1974
1751 -7.5318897234740128 5.3520475532120333 30.092229349109989 39 39 37 0.41110356868709141 7 3099 4 2922 3 2867 2 2801 1 2787
1752 -7.5318897234740128 5.3520475532120333 30.092229349109989 39 39 37 0.41110356868709141 7 3100 4 2923 3 2868 2 2802 1 2788
1753 -2.0613612569538513 3.3789641227958231 19.781530663231294 30 35 31 1.0866667465393243 6 2958 4 2928 8 3013 2 2855 1 2848
1754 -2.0613612569538513 3.3789641227958231 19.781530663231294 30 35 31 1.0866667465393243 6 2959 4 2929 8 3014 2 2856 1 2849
1755 1.7144929738147479 5.5546494089738898 29.490221506638616 97 82 61 1.9167450241377746 7 3108 4 2936 13 1658 8 4963 3 4808 2 5527 11 2566 19 2514 9 1574
1756 2.1635415599086105 5.5218738806676546 29.060034281512443 52 34 22 1.0142206048069766 7 3111 4 2937 8 3024 3 2882 2 2859 1 2851
1757 -10.175177317735454 7.5433008115566693 35.113574436272103 6 8 11 0.76148157127859195 7 3149 4 2976 19 1690
1758 -2.1278190981277709 3.6321274659474923 19.581052432806466 18 22 17 0.76037106263073684 6 2999 2 2914 3 4853
1759 7.5431026833522195 7.9708638719713187 34.666192403663572 107 103 91 1.5097602548224776 7 3229 4 3057 3 2972
1760 12.617319408542194 8.26839975275489 35.106653795971361 71 68 61 0.2060306219170471 4 3058 3 2973
1762 -19.5378380737288 8.4582360209465186 34.163582359818371 95 99 84 1.4525297387820704 4 3068 13 1720
1763 -11.705924665334601 7.8931469556274285 31.289278558714098 137 144 137 0.53993506063143537 4 3088 3 3057
1764 4.2205119239012925 8.8954847814427112 34.968297864660862 45 46 41 1.4702173661668134 7 3290 4 3128 8 3185 3 3037 2 2986
1765 -12.103406991381616 8.1482725126363125 29.376335495365126 57 50 40 1.4737913944051309 4 3137 5 2206 15 1629
1766 -7.898466110167365 7.6563938947181276 29.099427744850637 224 215 173 1.2571004198091023 7 3317 4 3151 5 2171 8 3216 3 3065 2 3103 1 3001
1767 -7.9284900677191636 7.6801736500618265 29.187491633105054 224 215 173 1.2720339855775609 7 3316 4 3152 5 2172 8 3217 3 3064
1768 -7.9275290540038528 7.8781985042617375 28.97205926790955 165 163 122 1.636177113215209 7 3318 4 3153 8 3278 3 3129 2 3102
1769 -7.2973104576888019 7.7296763763108576 28.377207842798622 232 222 180 0.82180708809102521 7 3319 4 3155 3 3130 8 3279 2 3106 1 3066
1770 -6.9201698692631659 7.6816601522448664 29.534563133301504 146 139 110 0.67603376432684115 7 3320 4 3156 8 3224 3 3072
1771 -1.904163639277479 8.1536379444334806 29.706526107069507 33 39 29 0.86987042460368613 6 3235 4 3170 8 3242 2 4822
1772 1.5009743601796637 7.8604493522323517 29.640453718464158 116 101 81 0.9630574929507727 6 3238 11 1754 4 3175 19 1735 9 1712 10 1735 20 1778
1773 2.337186117461366 7.9542432169858843 29.43814081525252 21 16 10 0.86388923314135391 6 3245 4 3179 15 1664 8 3251 3 4954 2 3123 12 2144 1 3043
1774 -11.606105633261103 8.4990832533610234 29.48409582134871 12 12 12 0.43841933316963816 7 3360 3 3165 8 3302
1777 -7.7696309975976838 8.0445176543349355 27.526507168466555 255 255 252 1.8993770578368756 7 3381 4 3210 5 2226 6 3280 3 4985 8 5129 2 5633 11 2661 10 2659 20 3223
1779 -7.2770102113424118 7.9065286898698952 27.90792687308501 235 226 174 0.8169637536378952 7 3385 4 3212 8 3280 3 3132 2 3158 1 3121
1780 0.62096602219505093 7.9950931990553613 28.590326287301959 185 194 193 0.79867024294266797 7 3399 4 3226 8 3293 3 3150 2 3121
1781 1.885064720367343 8.1629397869863691 26.05342074751303 192 192 193 0.55312940765441654 6 3302 4 3253 8 3319 3 3196
1782 -10.799183610120393 8.2305016095989334 23.790987649728869 207 204 197 1.5950314194530204 7 5188 11 1871 4 3257 13 1869 2 4881
1783 13.197491748823492 12.386052998288047 34.700537581578878 64 55 50 2.0495523308463244 14 1803 4 3270 16 1897
1784 7.8187091912104822 10.310363928874962 27.00542983599837 183 184 178 1.1678152641296471 7 5209 4 3280 8 3342
1785 -3.7868566508833679 7.0863031154973806 18.320804064810755 221 221 209 1.6893522685107401 6 3332 7 3454 4 3284 3 3233
1786 -2.6434175170135221 10.270407847844226 25.136695579323764 222 217 213 0.47669200957840357 17 1700 4 3286 1 3193
1787 -8.3545503598895152 10.335720332389929 24.138019362549645 218 208 198 1.3084718134345428 4 3287 6 3347
1789 4.1017866863014696 11.358124786628993 26.314745146179064 218 222 225 1.6991186471356516 6 3350 4 3294 8 3362 3 3237
1790 -1.0612464917474098 11.629653203710607 25.388899363975749 187 186 182 1.8688020893293733 4 3304 16 1909 2 3231 7 3484 20 1926
1791 0.21415168041937399 11.634097397275648 25.672899439974501 189 188 184 1.6618280530839857 6 3354 4 3306 16 1910 3 5043 2 4914
1792 6.7602489197683315 12.400501041865841 26.706564891734363 200 203 192 0.93307178522055645 7 3488 4 3308 8 3370 2 3236 1 3211
1793 7.5262763158582038 12.44268601092752 27.029893974634131 93 87 87 1.1203019873179834 7 3489 4 3309 8 3373
1796 -10.308228725060598 -13.290234848239706 30.747311741412833 196 198 176 1.4511195429852932 4 3339 15 1749 6 5199
1797 -10.647623586206965 -13.204004389979065 30.715839667853871 182 187 165 2.2079393041403659 4 3352 5 40 15 1748 16 1931 6 3415 3 3278
1798 -12.271252276527596 -13.611777438049351 33.458523046218112 248 245 204 1.949797156109133 7 5263 14 1875 4 3377
1800 -12.92011630798784 -10.670402056139006 27.595163511998599 94 113 47 0.84686322726948582 6 3470 4 3394
1801 5.0164945322963082 -9.9242060997512009 25.929634323970593 236 255 252 1.8179308836160837 4 3405 5 113 15 116
1805 -14.46165451733698 -12.589930681211499 35.446570364345355 208 202 176 0.93405613095701479 17 98 4 3415 3 3347 2 4959
1806 -14.402790970568354 -12.549049788250523 35.324744347856694 208 202 176 0.57309089675126546 17 99 4 3416 3 3348
1807 4.4804064288743035 -9.4242251121520422 26.070122700332924 232 255 255 1.2557585421682211 6 3499 4 3420 15 133 16 139
1808 -12.741205704048634 -10.269471356304944 28.908731544745145 44 46 32 1.3306809702520428 6 5247 7 3586 14 1926 4 3426 13 85
1810 6.2106757672309909 -8.4003690145236245 24.249464278754495 182 215 214 0.47205245246026961 6 3524 4 3441
1811 -17.470589419432443 -10.886437026038493 34.61333925856465 225 211 185 1.1665329123864527 6 5264 4 3447 5 165 14 1942
1812 -0.65679096601138698 -8.4517562203527348 30.59018774331647 0 0 0 1.4633802165263645 7 5333 14 167
1813 1.7733568359824152 -9.4224164228508709 33.799877539785655 108 129 112 0.91018936103563797 6 289 4 3480
1814 3.3396529149934491 -6.5801781136154229 22.519377299142974 180 223 212 0.4447454167527406 17 141 4 3484
1815 6.6524904621350238 -6.0460460022574658 22.084535926464568 72 71 63 2.0445502394857868 14 213 4 3510 7 3676 3 5169
1816 -16.149053025431506 -7.5858696415941163 31.225624023480929 59 66 32 1.7077248275856534 17 1834 4 3512 14 1995 5 227 13 2085
1817 -4.4837100496795976 -7.1811952321824659 30.304553593817253 182 220 184 1.1366235160767721 6 3623 4 3519 15 245 16 287
1818 6.6900365558028883 -6.0014015401865501 21.811369546821243 190 227 209 1.2590618713483581 13 2080 3 5172 7 5351
1819 -5.393634863525647 -5.8091503450071507 24.613441145003449 30 39 38 0.70787141018542166 7 3703 4 3544 3 3519
1820 -3.6842237352484761 -7.4424080143520861 32.873446616171769 215 253 200 1.5554601614749661 6 3657 4 3553 16 344 5 297
1821 21.747350692745936 -10.982287438913181 52.66114132294971 64 47 30 1.746969391554364 6 3674 4 3569 8 3728 3 3543 2 601 9 289
1822 31.671318513056676 -10.962225926012689 53.498805797402646 57 41 26 0.73337812967675786 17 471 4 3571 16 529
1824 -8.6512986180387319 -4.6608971382342883 24.617403042672311 200 204 169 1.2491706456992282 14 302 4 3632 15 1913 16 2105 3 3598
1825 -8.5472111641081749 -5.0576300766365714 24.808102878843197 215 230 178 0.68403733766377783 7 5403 4 3633 3 5205 2 5069 12 2433
1826 -9.5688000441314252 -4.1538586478115471 24.291012106796821 110 103 75 1.9021928569556759 6 3784 4 3672 5 514 3 719
1827 -6.2489469858696163 -4.2956612462507398 25.344088000531094 57 71 53 0.59624455539984178 17 413 4 3683
1828 8.0546166794806506 -5.9685981244462818 35.676054528990306 136 137 131 1.560551591771455 4 3707 15 491 6 3845
1829 10.019015475980696 -4.0815393390157553 21.696266148385799 93 116 59 0.96718833743255206 7 3881 4 3717
1830 10.477422501493814 -3.9006869914165554 21.832651122489565 101 126 60 2.1738646723385942 4 3721 13 439
1832 -7.869662658938223 -3.7346810063243825 24.641382443800342 174 208 177 0.95157576950682066 6 3871 4 3732 5 623
1834 10.701535720878281 -3.55685421658489 21.959588107185883 172 197 157 2.1770837340606395 7 1089 4 3795 15 506 3 1085
1835 -8.2298431643238459 -3.5296093854743837 24.440019711041955 222 245 201 1.0995402613296239 7 3972 4 3805 13 461 14 500 8 3882 3 3817 2 3687 12 560 11 408 9 440 1 3728 10 390
1836 -1.8126689869826533 -2.9529974249846584 19.88467607954885 116 156 68 0.20991436910144842 6 3894 4 3815
1837 -1.7284901004311288 -2.8961391339254083 19.792327599446022 110 155 61 0.55580863836598415 16 575 5 633
1838 -1.0263845479284541 -2.8661187385286984 21.043411850082812 97 136 57 0.34836405930545822 6 3959 4 3867
1839 6.1779512359475692 -1.5510385643867006 25.910170055466342 80 90 74 1.4532310949525808 6 4127 4 4018 15 765
1840 8.7032836192262888 -1.282189780874321 34.272046790300578 121 113 90 0.47910559715640233 6 4199 4 4021
1841 0.56698725919079185 -1.1648696741950844 30.163166103381691 33 57 33 1.6078608462551744 6 4186 4 4060 15 869 16 914
1842 0.8563626447638556 -0.70774453502423418 30.405819807608047 115 153 96 1.5270251121614711 6 4258 4 4067 15 876 14 884
1843 8.4388246301538317 -1.143421689412921 21.920427433483162 135 163 105 0.87525657337684892 4 4084 19 766 2 4096
1845 7.8440084267532422 -0.73048911909717285 23.054657571297007 132 153 86 0.81462733237774909 4 4137 18 767
1846 10.035311257003785 -0.84840584840158106 18.866007606666134 241 255 202 0.61272618820891978 4 4142 15 836 2 1886
1847 6.9055278661261505 0.025731605271994834 24.522293194516877 134 153 80 1.3180773709548703 7 4454 4 4195 13 947 18 922
1848 6.762518200311753 0.095667640525854969 24.437500892112549 130 147 76 1.5814244484438105 7 4453 4 4196 8 4415 3 4310 2 4204 12 1310 19 979 1 1924 20 941
1849 7.0229932279474978 -0.18208471036072274 24.335673680131826 60 79 49 0.6356404465241976 7 4393 4 4197 13 946 18 924
1851 9.3370658887626963 -0.35853633643420874 18.718948278156795 52 60 37 1.748406762672259 7 4403 5 1242 16 1007 12 1229
1852 11.129978147612382 0.78412415719097928 27.070213441425032 66 83 49 1.7660800266173995 14 1197 4 4282 18 1084
1853 11.366322256535314 0.69719622506193013 26.624244402493911 64 75 43 1.163029451778113 14 1108 4 4287 3 2038 2 2184
1854 14.560069712041248 0.54014610588441536 25.095908329340592 124 146 83 1.7187895983154418 6 2244 4 4291 15 1116 3 2054
1855 14.829684631518651 0.54763019639965349 25.772393863451832 124 146 83 0.64188165984236578 6 2243 15 1117
1856 9.8793913695599915 0.39948065062899057 18.328859329209568 79 73 39 1.4244006108857088 4 4368 5 1445 15 1110
1858 15.249799233470414 0.69661897866477185 24.954807172550517 92 101 54 1.7150203419657966 17 2221 15 2179 16 2399 4 4375
1859 -18.658420113408656 3.0496813553885773 35.66483688561695 178 161 134 0.3383580354186102 6 2498 4 4464
1862 -6.8217207564192242 2.7862932290676854 30.080417869786825 50 64 41 1.9225683920310705 7 2620 4 4473 8 2528 2 4412
1863 0.059779817345449043 1.8726401902789251 24.621192419625444 70 108 61 1.1463808680363838 6 4609 4 4486 5 1595
1864 10.494967237146898 2.0169886090040872 24.569606572291274 90 66 40 1.3958917225317495 7 2686 4 4513 8 2623 3 2486
1865 -13.744640007947892 3.3467559037059833 29.738688969870246 50 42 31 1.2232799987467238 14 1349 12 1698
1866 -4.7768152035438964 3.2631896837181849 29.276784503546288 103 115 63 1.1089908454664648 7 4815 4 4544 13 1453 18 1401
1867 -4.4970225479289212 3.1776241515160728 28.716119540328553 105 119 60 0.76610581397631761 7 4816 4 4546 13 1454
1868 -0.39791734229154507 2.0856567307965097 22.797818346119154 90 130 77 1.7989988940538257 7 4734 4 4555 5 1664 15 1278 3 4588 2 2595
1869 7.5558654528524603 2.8532723046403192 26.346693409682704 120 115 95 0.044001723594866184 7 4837 4 4566
1870 7.8813738699759321 2.6593931270524278 25.924799521577555 122 120 100 1.0795064614140042 7 4835 4 4568 8 4779
1873 -7.9671661167306498 4.0127045499888929 29.757574898751663 109 127 66 1.4432473094988303 14 1423 4 4589 17 1388
1874 -5.7046540367067653 3.4173072292624429 29.246156045655287 130 142 80 1.0489230282809689 7 4808 14 1359 4 4607 17 1310 18 1395
1876 3.5385806382949956 3.7550882113324637 28.699726250053953 45 46 38 2.0707221438899976 6 4826 17 1408 4 4627 5 1846 13 1533
1877 3.6457156064650413 3.6214021266108349 28.616744305697672 48 51 40 1.2329610022969653 7 4906 4 4628 5 1774 6 4824 13 1532 18 1416
1880 1.2747486302642617 3.8428355197535331 28.776938024821288 92 101 57 1.2836912377086065 7 5835 4 4677 13 2616 8 5768 2 4566
1882 38.529606544232976 11.555013616724183 69.801959481216684 201 179 142 1.8107022058846378 6 4925 11 1591 4 4704 16 2608 18 1564 12 1962 19 1630 10 1532 20 1609 9 1505
1884 -18.0228916536905 5.5041630769339047 32.932575822093717 12 12 14 2.1432302522382352 14 1474 4 4711
1885 -11.892049356007981 3.9639691710102691 25.299882659856436 136 127 86 1.5168160701908615 6 4897 4 4714 5 1891
1886 -11.92896913274361 4.1975344773589738 25.722955340902072 129 120 81 1.1896602240322656 6 5768 4 4715 15 2295 16 2519
1887 -8.0752473182944637 4.8233187274409826 30.026381047339662 50 69 37 1.8088421989615562 14 2484 17 2359 4 4721 13 2638 18 2477
1888 14.031584720213051 3.223776471122425 23.021726004613289 117 135 75 1.6369320844646107 17 1426 4 4737 18 1437 13 2653
1889 3.1118763751298406 5.4265184876438859 29.311063182898732 101 81 56 1.3750959256298774 14 1588 4 4753 5 1984 8 3026 3 2889 2 2829
1890 -2.2205945841640879 3.7335843294093616 19.428075334282649 61 68 63 1.8925926554788102 7 5040 4 4771 3 4854 9 1587 10 1636
1891 2.2364613263306383 5.8196486883859029 29.030865661304464 136 113 81 0.93752877078310115 14 1620 4 4775 15 1538 5 2033 13 1661 18 1595 12 2016 19 1660 2 2863 9 1590 1 2854 10 1640 20 1686
1892 11.900794794844066 7.3201198311779576 35.781015243432584 67 60 54 0.96678674910456142 7 3177 4 4781 3 4836
1893 2.1506236759373194 6.50395974073807 29.097967361324713 115 93 69 0.54325721663965143 6 5012 4 4824 5 2084 15 1573 16 1740 13 1747 3 4866 2 4726 9 1625
1894 -7.0932787489532991 7.4758276853260588 29.67210556655079 190 190 154 1.3252146305410266 7 5095 4 4848 13 1780 8 5074 3 4931 18 1670 12 2118 19 1722 1 3006 20 1765
1895 -9.2063035328431226 7.5109823977612624 29.020166465281715 223 217 169 1.36346519376661 17 1603 4 4876 5 2161 15 1592 16 1764
1896 -7.5061663891829893 7.4598437323123328 29.078921377490278 239 234 195 0.65094256587819865 14 1692 4 4882 3 5705
1897 0.32779911071176643 8.3087296959855799 31.249056337861592 26 39 30 1.1464964765702477 6 5079 4 4896 15 1649 5 3193 16 1837
1898 6.4881091698359192 7.9769088457599651 29.936044110556185 159 161 150 1.3784429279616646 6 5084 4 4902 5 2195
1900 -14.225106172656378 8.6447275883353871 30.077146578879216 10 10 12 0.86934002279945621 6 5087 4 4910 5 2201
1902 -8.7868277749630632 7.8816678209378024 27.832214640129926 44 32 16 1.8244273743076784 17 1644 4 4914 8 5111 3 3124 2 3149 1 3116
1903 -8.6454799306853296 8.0629828021787517 27.38166349765849 253 254 246 1.3299251029811017 3 5745 8 5127 2 6082 12 3650 9 2601 10 3147 20 3540
1905 -8.4048933543026454 8.0011827259809145 27.058263576734035 165 152 115 2.0274260734718124 4 4930 8 5128 3 4983 11 1832 2 4840 12 2192 19 1817 18 1747 9 1754 1 4891 10 2655 20 1870
1906 -3.8635925463175678 5.754265948175564 18.679467138470262 88 109 72 1.4613392508780045 6 5111 7 5178 4 4940
1907 7.8155936314020957 10.877251472438342 27.016801508498364 181 180 175 0.49502358065481372 7 3463 4 4963 8 3349
1908 5.8433817814091906 11.607045376461427 26.671988056152859 184 180 177 1.3112944043611803 17 1713 4 4971 8 5190 3 5029 18 1806 2 4907 16 1902 19 1862 1 4944
1910 -9.5524345093711691 -13.437567060635194 34.750142468491795 166 175 170 2.0960208145767623 6 6006 4 5025 5 3323 15 2584 13 2001 7 5276 8 3449 3 3327 2 90 9 31
1911 -6.5841345850498412 -13.440488192227415 34.486000369790098 153 151 138 1.8713542817698818 7 5278 5 3833 13 66 3 134 8 100
1912 -12.313980723485228 -11.343992939732731 29.4610223317509 254 254 251 1.0616133961989667 7 6117 4 5033 13 2894
1913 10.175364404921389 -11.000702318799313 29.670577544143342 116 111 92 0.6138306680786525 6 5245 4 5042 16 1994
1914 -14.40793277553723 -10.094218278326499 28.075622515340513 76 92 42 1.081875413417845 14 1924 4 5044 17 71 13 77 2 4956
1915 -12.565318516885483 -10.265110604917361 28.892825883477364 56 60 45 2.5329085151642792 7 5295 13 2907 18 2704 4 5056
1917 -16.178915307197684 -7.4918431201601523 30.890847002153386 227 226 183 1.0330365940068094 14 1994 17 1833 4 5096
1918 -14.744772440017542 -7.8454798324357036 30.963978589578851 76 80 45 1.3188567576560983 14 2769 4 5098 5 3380 17 3089 15 2651 16 2840 13 2961 8 6034 3 5865 12 3267 11 2805 2 4999
1919 -14.755879056881302 -7.852835952770242 30.987874369130818 76 80 45 1.4378672285902303 7 6180 14 2768 4 5099 5 3381 15 2650 16 2839 13 2960 8 6033 3 5866 12 3266 2 5000
1920 -3.673611545452784 -7.7350902455240629 34.282268961038177 56 83 66 1.612561286297213 6 5336 4 5130 15 1887 5 3407 16 346
1921 -7.2497806469582438 -5.1368924451894271 24.488726752716129 86 94 52 2.0759974942008044 4 5140 5 2458 16 324 15 293 6 5345
1922 -0.32748465595973875 -5.63687714089082 31.264542002131364 192 220 208 1.0278105359023593 4 5158 3 5231
1923 10.162617080453961 -4.2124236206431718 20.998973472865057 171 184 148 1.5469248377890281 7 5448 4 5171 13 2169
1924 -2.1940572956102571 -2.898080056434639 19.751992988599465 143 182 153 1.521421827594146 6 5417 4 5236 5 2561
1926 6.2791283523760129 -1.5449296018141858 25.528186624260911 11 22 8 0.79570671688198436 7 5625 4 5308 5 2673
1927 -19.641343706273219 -1.0721247064926953 35.671432573183708 15 15 17 1.6600280856080203 14 2232 4 5312 15 2081 16 2286 13 2346
1928 -17.063082147972999 -0.9796563271808264 35.03810548156644 139 130 100 0.61759940857160633 14 2234 4 5313
1929 9.5771549216470753 0.52280078823692167 18.455832255841365 95 100 60 1.4859409785221473 6 5617 7 5735 4 5450
1931 -10.15535481167564 3.4024606377871769 35.159914009184604 133 133 121 1.0543741094700299 7 5790 4 5455 5 2895 13 2546 3 5534 18 2399
1932 3.1766625002096105 2.6156622663362299 28.453226347628107 53 64 49 1.5346006123188294 17 2274 5 2946
1934 11.287977143920111 2.2923335646414449 23.938629227294246 176 186 101 2.1282910799827897 4 5491 15 1350 16 1514 5 1705 6 5681 3 5573
1935 11.339637184746197 2.3091364359167383 24.057550264071324 176 186 101 1.7220954092493532 6 5682 4 5492 3 5574
1936 -6.4107595270616731 3.8511393858681346 29.378143858137872 63 83 48 1.4944070519489219 17 2321 4 5495 5 2994 10 2502
1937 11.824146579985046 2.5350631828883632 23.312708282363069 255 253 195 1.6187988871409238 7 5827 4 5506 15 2267 18 2391 17 2283
1938 11.482871794597113 2.7716089852921164 23.330953376922711 108 124 75 2.2094773008667614 7 4915 4 5507
1939 -12.370360031126635 3.2552399672209416 25.037669601796523 60 54 36 0.9946569869136761 4 5514 8 6266
1940 -0.18906597202817016 4.1005577572205576 29.803556865942447 88 104 60 1.2728696079122888 14 1483 4 5519 17 1400
1942 11.86631221420576 2.9240380840581808 22.742953360787375 191 186 128 1.7523359630571407 4 5529 15 2309 16 2509 6 5732
1943 11.86631221420576 2.9240380840581808 22.742953360787375 191 186 128 1.7523359630571407 4 5530 15 2308 16 2510 6 5731
1944 39.984186937900084 11.533891832167484 69.93570431220445 202 174 137 1.4783712530952111 11 2549 16 2609 16 3106 4 5537 18 2509 12 2978 19 1631 10 2525 20 1610 6 5796
1945 -12.641716701781148 4.4515340930268898 26.540623552215838 125 112 80 0.97997545592323265 6 4899 4 5542 15 2296
1946 3.4105778921031611 4.7324735493040535 29.48112459068237 41 41 39 1.4336888465976565 14 2517 4 5553 13 2645 3 5627 2 5491
1948 -13.979886394057736 6.1051151596024953 29.854565941285365 99 95 84 2.685568813261856 6 4957 14 3012 4 5582 5 3705 3 5649
1949 -2.4162288444364579 6.1787954428814169 31.114633181800805 16 21 15 0.90590762441148365 6 5825 4 5590 5 3095 15 2386
1950 -13.803263200796774 8.0451025573107877 35.140451914870262 91 91 91 1.9097058293211207 6 6288 14 1640 4 5599 6 5829 5 3101 15 2398 16 2611 17 2434
1951 -13.64816675919911 8.4886677511030442 35.121634797842354 107 112 108 1.1575979142620136 4 5600 16 2612
1952 -11.517120515683652 7.6940035484158615 32.155185132112578 31 36 30 0.088392672508396039 7 6437 5 3741
1953 -10.395604687490724 6.9376676398473398 30.842578649787281 18 17 15 1.5742327893844126 7 6412 4 5603 3 4851
1954 -13.897196987338452 7.7003865932780897 30.39354723223455 22 21 19 2.0368988767161125 15 2428 16 1755 3 5698 2 4771
1955 -9.5956445523294303 7.5843379857100572 28.483704893580668 54 50 45 1.4360532493953369 7 5981 13 2750 8 5897 2 5602 12 3096 11 2646 9 2577 1 5627 10 2635
1956 -13.845626574393229 8.5772922474968532 30.049548297345694 14 13 12 1.8242623880830937 4 5657 13 1811 8 5934 3 5743 9 2597
1958 -8.0266204004826829 8.0602077590365688 28.442735848265364 173 170 125 1.5184123093394963 14 2632 17 1647 4 5664 5 3212
1959 4.909537768594376 7.9491967832556236 28.904165443274167 186 187 181 1.5587728725346452 14 1778 4 5670 16 1862 3 5738 2 5625 9 2572 10 2627
1961 11.188788019971142 12.618122118463493 35.232786840714624 55 51 42 1.2471457283435288 7 6044 14 2672 4 5696 13 2824
1962 11.697284840998368 12.43788281661114 34.727930713904733 64 60 50 2.0097495972866253 6 5937 4 5697 15 2515 8 5949 3 5765 2 5653
1964 5.2529858175326956 11.902836657318293 26.867757874674638 142 139 134 0.91591268517169122 11 3201 4 5717 6 6356 20 3258
1965 6.2996793916821847 11.74944724792854 26.799917572687662 146 142 133 1.4771242096237855 4 5718 16 2751 7 6068 13 2838 3 5041 18 2651
1966 -12.463374754823692 -11.182427792409117 28.88442948496677 58 73 29 1.7679822009965154 4 5760 5 3320 7 6116
1967 -13.879469721570029 -10.217121838208007 27.712497263831978 255 244 215 1.3360809512857428 14 3150 17 3044 4 5767
1968 -14.677536579155142 -12.123525431623344 34.73178848435213 166 165 144 1.1280413412738444 4 5769 5 3842
1969 -12.424750974143437 -9.8949790394894368 28.91752514021567 86 95 66 0.82358670021965086 7 6141 4 5775 15 2598 16 3225
1973 -2.13639311522831 -10.560290489175125 37.461746476231866 145 131 105 0.064009996985300327 4 5807 3 5856
1974 -15.867259740727263 -7.7740255286786146 31.192191980548095 54 58 31 0.86278855002609589 14 2767 17 3086 4 5815
1975 -16.84589544577068 -7.2341039146940265 32.075675836268282 130 114 88 1.2934035664230299 14 2011 4 5826 17 1854
1976 -6.6021043754193105 -6.0305838071664706 25.844026211932846 48 62 32 0.95473324704089568 7 6192 4 5828 5 3398 6 6075
1978 -7.6452705728805963 -3.9611252636153664 24.228548437492403 113 94 77 1.7695002997121532 4 5880 5 3946
1979 -7.5567420864613792 -3.7604314589924632 24.956967425060167 63 76 57 1.1003486118161447 6 6492 7 6238 4 5881 5 3956
1981 6.0579327761629802 -2.3242162531292228 20.540220484728625 173 193 156 0.52041536237743846 7 6251 4 5909 18 2834
1982 -19.340621100836007 -1.768005803407352 35.758220109874699 14 14 14 0.84039004104179282 14 2883 4 5920 13 3075
1984 9.4749559785058928 -0.32097209466728777 19.851593409286686 250 255 188 0.71861085241611811 4 5958 8 5611
1985 -18.781898709091969 2.9565122290278172 35.177508279031514 166 149 120 1.7191708870754516 14 2943 4 5981 5 4043 16 3018
1986 -10.152808811025928 3.5884227387883136 35.219434292927836 16 16 18 0.69888561619088441 7 6364 4 5995 13 3175
1987 1.1522333973013283 3.713406176881469 28.583165666595725 96 105 60 1.5130205296567159 7 6376 4 6015 5 3669 15 2863 3 6095 2 5984
1988 39.396351805379581 10.980223018785704 70.120307298480085 203 173 139 1.4856178406335814 11 2548 16 3105 4 6018 12 2977 19 2517 10 2524 20 2578
1989 1.5365038319390849 3.9765994710974075 29.332590170271228 39 49 25 1.9704626138096077 6 6592 4 6023 15 2877 5 4076 16 3400
1991 -9.5169280709265198 5.2284536725717166 30.451489653318749 55 71 45 1.6405286177311516 17 3221 15 2883 16 3079
1993 -13.156380886784534 5.6349779663805482 29.220918416002242 117 108 75 2.3630196569075061 6 5803 4 6039
1994 -12.914650439345227 7.3220913157043714 32.480097721293468 44 40 31 0.21546362272942793 4 6056 16 3100
1995 -1.4494268241706298 7.7222442470723953 33.210172229556584 8 12 11 1.9996679826496029 7 6420 4 6065 5 3729 13 3570 8 6632 3 6131
1996 -1.186780162069712 7.8018881036395431 33.298513427418847 90 88 76 1.8792045618945223 7 6423 4 6067 13 3264 8 6313 3 6134 2 5568
1997 -7.2659406973225069 7.7582111703871144 28.537999614671101 204 191 146 1.976699487469104 7 6451 13 3289 8 6363 3 6487 2 6375 12 3637 19 3095 9 3120 1 6101
1998 -6.9476444578630323 7.7795946975765791 28.911453414434106 197 184 149 1.5416363452721533 7 5987 4 6092 13 2758 8 6348 3 6176 18 3078 2 6069 12 3639 9 3121 1 6102 10 3130
1999 4.9855166428329358 7.9813856819444142 29.552757033208728 137 139 138 1.5790481406505983 14 2644 4 6098 17 1665 5 3771 15 2971 3 6170 18 1697
2000 5.6022015836694861 8.013481621111195 31.209565954185717 128 125 110 1.6861118869478311 7 6444 14 1763 4 6099 5 3759 8 6338 3 6157 18 2595 2 6061 19 2593 9 3098 1 6091 10 3102 20 1753
2001 6.5705207056775121 8.0136970458007042 30.920414406832808 162 158 146 1.3379133897416364 7 6459 11 2640 4 6100 8 6339 2 6062 12 3089 19 1737 1 6092 10 2613 20 2670
2002 7.0064218636857909 8.0242657610834041 29.898190813309871 173 173 163 1.4727956390457786 7 5998 14 2646 4 6102 13 2800 3 6171 2 5600 1 5621 10 1738
2003 -3.8898818295989006 8.2650963144170646 29.525756562013139 13 18 14 1.7217164169888364 7 6466 13 3292
2004 3.065516382867572 7.8448973227472214 27.606805805405973 179 193 202 0.84599241981172657 4 6119 5 3770
2005 -1.5707464619400917 8.0288984092789573 25.459561265291686 255 255 255 0.83618041079391259 11 3190 4 6126 15 2981 8 6386
2009 -14.352121861226099 -12.746279974338787 29.741411429330871 84 96 48 1.1823847200351729 4 6160 15 2556 5 3822
2010 -13.705054876969736 -12.607807615336844 35.348536014160388 231 230 202 2.3716915898351592 14 3159 4 6176 15 3044 8 6447 3 6252 18 3160 2 6149
2011 -14.424405700149061 -10.360478610232274 30.077822302206158 206 194 169 1.0421241235299838 7 6524 4 6180
2012 -11.20583792378352 -11.59937855995198 35.340750081882788 188 184 175 1.8437168721475972 14 3173 17 3056 4 6185 15 3055
2013 -7.91179334386148 -11.009256907842438 34.817722895631675 254 255 242 1.5639106617932557 11 3260 14 3175 2 6169
2014 11.548216960461319 -10.815920638967453 35.050547056375315 112 106 94 1.1982672178261558 4 6195 15 3353 16 3534
2018 -13.217983421058594 -10.111922067390793 35.725976760777101 194 171 138 1.5911041764304055 11 3262 4 6207
2019 -15.405493060784414 -7.8497665211436951 30.814756058373426 56 62 34 1.1032797805886723 14 3478 17 3357 4 6213 5 3883
2020 -0.78218913600681683 0.35499737504418905 26.343199868865614 122 165 126 0.45565072170413179 7 6650 3 6033
2021 -5.6442481375445759 3.2204337073609328 29.596915353921993 27 38 21 1.3494950142069682 6 6586 17 2890 4 6342 5 4057
2022 34.204826657123135 9.3340159257687656 68.913762816756588 191 161 125 2.1121690654030929 11 3092 4 6349 5 4070 12 3544 19 3012 19 3013 12 3545 10 3037 10 3038 6 6596 20 3111 20 3112 18 2982
2023 35.926216985807542 8.8028133606656951 69.172562222252679 96 83 67 1.3610561861262198 6 6597 11 3093 4 6350 16 3408 19 3007 20 3113
2024 38.901210868920089 9.3373816454133021 69.700872101345468 202 172 136 1.7328894382547397 6 6598 11 3430 4 6351 7 6694 16 3691 19 3341 20 3458
2025 2.2595848560045204 4.8209892526093787 28.623821286169516 128 107 81 0.17515682844623554 4 6364 15 3218
2026 -13.467918173309743 6.1031851578773706 32.637927607096998 63 55 42 1.7784720540945214 7 6707 17 3228 4 6367 5 4087 14 3013 15 3221
2027 -13.467918173309743 6.1031851578773706 32.637927607096998 63 55 42 1.7784720540945214 7 6708 14 3014 17 3229 4 6368 5 4088 15 3222
2028 -10.703902172951965 7.4173969573808636 31.366658486463031 16 15 13 1.9172537970018992 14 3360 4 6375 5 4112 3 6731 2 6773
2030 -1.106492661094808 8.102344169893728 35.079736212142301 4 10 8 2.301376764354488 7 6422 4 6382 5 4358
2031 -0.32027325132337581 7.7003101095190551 33.13077942911594 70 73 66 2.1651539623426639 7 6732 4 6383 5 4365
2032 -14.087599318167175 7.6750660823669046 30.325325274122939 127 121 109 2.0774254133433527 4 6388 15 3249 16 3122 3 6477
2033 -8.9402258243088202 7.3168662104275048 28.930889022516862 185 181 136 2.3285372683115373 14 3059 4 6390 5 3756 6 6305 15 2436 19 3091 9 3419 11 3469 10 3675
2035 -0.31562822154540754 8.3977654078887536 30.689680978136391 9 10 12 0.53725598788405615 6 6326 5 4136 9 3422
2036 8.0275947627138891 8.0111629169807177 30.346035637003329 70 63 57 2.5674682320803299 14 3100 4 6409
2037 -10.29383872435306 8.3360769780917376 23.959843722818846 215 208 200 1.6779128304005446 6 6883 5 4389 16 3725 13 3605 8 6899 3 6757 9 3681
2038 7.3478594640429211 12.208863284761998 26.970080303034553 158 151 145 1.7232916125893603 6 6668 4 6436 9 3449 1 6141 10 3477
2039 10.520200366736134 -10.923081662181513 24.862677902553528 135 128 112 2.2661291754924284 4 6445 5 4161 16 3501 8 6435 3 6246 10 3210
2040 -10.897312628198376 -13.20197501078961 30.83985343151291 248 249 231 2.3316403096478324 4 6447 5 4162 15 3544 16 3750 6 6688
2041 -14.063912741075628 -13.048333821190615 34.888401938379502 182 180 157 1.9959064423842989 7 7036 14 3440 4 6458 5 4172 15 3332 16 3517 13 3883
2043 -13.655567901799271 -8.9444817996600801 30.12442783008342 108 101 85 1.3205703764660521 4 6484 3 6565
2044 -15.502665718077996 -10.181098376499023 36.146625653879589 189 165 137 1.7856738417021252 4 6485 5 4200 15 3357
2045 1.2222079059411202 -9.5328904404400294 35.163312204547914 109 113 82 0.33971190211251462 17 3094 4 6488
2046 -13.446445384613595 -7.1600232524982879 28.973668756459961 193 160 115 0.018107058837997909 4 6496 5 3885
2048 -8.0176191191984749 -3.7972443555728601 24.201086624332572 103 86 68 2.6396271884278573 7 6871 4 6531 1 6260
2050 0.4237732227492661 4.1629927260452844 30.584514180480561 55 61 49 1.6546278557689513 6 6591 4 6623
2051 -14.023444741803115 4.6922097213407143 29.782164168322083 100 98 85 0.34183979562027977 4 6628 16 3678
2052 -14.279526139974447 5.4854087608631934 30.333639623781899 115 104 71 0.94069142539430151 4 6629 15 3482
2055 -2.2870546592725414 3.9304812476781295 18.716107432480069 59 68 51 1.0637113127078877 6 6848 4 6640
2056 -1.2560487265193128 8.1251748420112424 32.852091799860879 8 12 11 2.0489528763714455 7 6742 4 6651 13 3583 18 3062
2058 -8.7951896788211954 7.9912295583968929 27.851383845554992 25 22 15 1.6323176397089314 14 3644 17 3511 4 6659 12 3962 9 3834 10 3890
2060 5.4054757501076747 7.9891646724870888 28.467702343403808 223 225 214 1.3652836990025043 6 6874 4 6666 5 4381 15 3289 16 3465
2061 -3.9057329538664267 7.6518578951322196 18.370809184605303 112 123 80 2.1965307729800938 17 3519 15 2986 5 4150 13 3856 8 6904 4 6674 3 6943 8 7067 9 3843
2062 -12.835926785626105 -13.933517758873975 34.321299679668947 245 241 204 1.8483356324238034 7 7209 4 6689 14 3686 3 6774 18 3807
2063 -14.173218196930749 -12.822095147258738 34.258539429196311 237 229 193 2.4057668471804723 6 7074 4 6691 5 4568 15 3710 16 3930
2064 -12.240760033154666 -13.574170973398918 35.266878968270994 222 207 186 1.687212891326533 6 6918 4 6694 3 6952
2067 14.886806909704214 -0.29314354918470453 24.936896299406381 95 102 48 2.1733604866079643 17 3637 4 6766 5 4491 16 3848 3 6671
2070 -12.377854142795274 8.6266402991128981 31.228813507891164 68 72 73 1.9048227495006824 6 6867 4 6813 5 4551 16 3449
2072 6.5585845370689597 7.9992319220601615 30.670673878914982 152 148 137 1.0913146223795025 7 7186 15 3680 3 6924
2075 20.500225959245597 -10.738613960971668 32.881756909957566 103 90 82 0.94313300167259539 6 7084 14 3870 4 6843
2076 3.2090415366443481 -2.4149984672539686 25.251586743672224 21 51 9 1.2867945239451446 6 6982 4 6880
2077 -19.257348237161128 -1.9574912937242928 35.358410390669853 11 13 12 1.4328732838853084 14 3910 4 6890 15 3770 16 3987 13 4107
2079 -3.9555434594331738 -0.43434937568516269 22.812737647531872 134 174 140 0.61403431932607933 15 3777 8 7132
2080 -0.26404925246934668 -0.50330313632784685 28.391840381201657 62 89 56 1.2075330508018989 7 7263 4 6900 5 4627
2081 -18.932385190829308 2.6228850778346762 34.762821570417948 17 17 17 0.98626327643248179 14 3936 4 6915 16 4013
