# 3D point list with one line of data per point:
#   POINT3D_ID, X, Y, Z, R, G, B, ERROR, TRACK[] as (IMAGE_ID, POINT2D_IDX)
# Number of points: 414, mean track length: 4.2677383592017737
6229 10.490484918177227 0.56363038081809114 25.878906082374694 69 79 45 1.9859500773667034 18 3553 9 3612 10 3625
6230 3.7290906437537967 1.9676923648142497 29.671024765954517 26 32 18 0.34889908335284625 2 6579 9 3618
6232 1.5173960032596581 5.7127172988751083 29.795649496402248 130 109 78 1.1290084960138334 19 3595 9 3647 20 3724
6233 -9.7874782252511086 6.2551256564034752 30.579331572824643 80 82 71 1.8445731662316212 3 6917 9 3652 10 3871
6234 -5.7744071652276991 6.4403537910517672 29.491417301055712 80 92 70 1.4838498923813903 15 3511 9 3655 6 6862 10 3676
6235 -13.211814022209801 7.2998236724159877 28.578274521296365 14 14 14 0.97786330281228961 9 3673 10 3694
6236 -4.562135533503489 5.6794883819632522 19.03369489298295 228 224 221 1.7469541988237671 8 6896 9 3678 10 3696 1 6691
6237 -10.702609208828557 7.2745627374515562 23.882435014817474 0 0 0 0.37738365979418281 18 3617 19 3625
6238 0.89551345980881036 10.821031521516492 25.923691137944868 149 142 134 0.97985819867256951 11 3734 9 3690 10 3706
6239 3.2628907870303423 11.669303003690372 26.443480389337871 228 238 247 1.0211163302996056 13 3635 9 3695 1 6703 10 3714
6240 -12.185746394921638 -13.651419052326775 35.161843604058866 0 0 0 2.5500698701679547 3 6785 19 3646 18 3650
6242 1.7870825527559329 -11.106605468817504 34.348284555204941 93 119 106 0.47764788644670242 8 6943 9 3717 10 3743
6243 1.7616741478526563 -9.8893824252777716 33.272701915801939 110 112 94 1.4292677223651666 12 4279 9 3719
6244 -9.8198152170091859 -4.9601613826350235 23.378913190584584 249 253 228 1.1375968767766091 8 6748 9 3738 10 3763
6245 12.33867661770214 -6.8679789072283821 34.832984339409833 144 132 120 1.6294616993558491 3 6988 11 3819 9 3745
6246 12.33867661770214 -6.8679789072283821 34.832984339409833 144 132 120 1.6294616993558491 3 6987 11 3820 9 3746
6247 -18.676507347995358 -4.4871693232595868 47.891387139456747 106 85 64 2.0165746978876644 2 6705 8 6791
6248 6.6891178533444853 -0.7685841618813094 25.923006676959258 57 73 47 1.6573589782684433 2 6720 9 3774 1 6809 10 3805 11 3642
6249 6.7129738359590743 -0.77397220285084167 25.993831419111707 57 73 47 1.2021157861751828 2 6721 9 3775 10 3806 11 3641
6250 -2.75026817888067 2.1381680870354463 20.428672012170495 0 0 0 0.15032988635984912 12 4362 19 3752
6252 -13.619371738127509 7.7509341615350449 32.699768765744977 72 73 75 1.6760431644324487 2 6905 9 3830 1 6868
6253 -7.0133732139181575 6.8455044049146379 28.936347318612185 214 202 164 2.1327912325448275 11 3933 9 3831 10 3886 20 3922
6255 -2.6725072681515418 7.4295650636234738 25.600068714199807 216 215 211 1.0985259030992882 2 6790 9 3840 20 4053
6256 -11.142691188668271 7.255197062272523 23.557122844818267 0 0 0 1.7673780119786247 2 6792 19 3788
6257 0.18428090752796408 10.765939541866203 26.355589053930888 195 191 190 2.1368712884910601 8 7069 9 3844 1 6876
6258 13.03782951162597 -10.780069162857188 21.551509497797607 0 0 0 0.24065076873124888 3 6947 12 4405
6259 13.734977158355971 -11.810535920589913 31.504719767505147 102 93 78 2.4096140124439827 13 4196 9 3853 1 6899
6260 -0.53402255978574986 -10.980880791638603 36.264438162554747 143 147 124 1.3842294716695012 11 3775 9 3862 10 3917
6261 -7.6478035660818033 -4.1214756541376252 34.166887630374063 0 0 0 2.1695158691877219 2 6955 12 4454 16 3984
6262 -15.460299518519543 1.6175350713651662 34.330465504624556 151 146 140 0.097206513895106608 2 6871 1 6963
6263 3.1273901826913613 3.8394430034181428 30.231004147754135 50 49 44 1.1082134910305903 2 6759 5 4665 1 6842
6264 -2.0464469877386904 2.3019225017151044 20.073251254637203 129 172 116 1.9927424138941676 2 6885 3 7051 1 6978 10 3981
6266 -10.583921951291888 6.482851703466884 30.812141997565913 86 88 79 1.4922884220249431 8 7050 20 3746 19 3614
6268 -14.804290242514943 7.0656518662729937 31.418649327162232 0 0 0 0.69037583898487531 13 4017 14 3979
6270 7.6269078825452619 9.4988859573215549 27.8686704156122 93 88 82 1.0373134179913661 8 7172 10 3895
6272 8.5536857909593209 12.171014809483577 26.538091335663694 0 0 0 0.84221047983737962 11 4077 12 4526
6273 -13.964759071600525 -11.153344268470434 27.493357178018378 16 21 17 1.8716425862126911 8 7178 9 3952 10 4002 11 4082
6275 -13.614094614851229 -12.22612115002474 32.963567586431608 250 245 215 1.8673571865966903 2 6807 9 3955 1 6891
6276 7.4974358004126316 -6.0989596417649459 20.148190989627693 124 128 107 1.9088282429800341 11 4100 9 3962 10 4021
6277 10.433564928246488 -3.6912264059417295 21.440019863159442 87 93 50 0.47999860220569512 8 7212 10 3946
6278 -4.519547783928509 -0.73002820073354868 25.125096778944023 48 52 32 0.96159830077066055 12 4585 10 4052
6279 -9.9873382075139148 3.1119292318098082 32.643274019541806 14 22 9 1.7804857006055812 2 6986 1 7066
6280 -1.6190805884091988 1.9430472660569615 20.682688729129968 0 0 0 2.1433709006451886 4 7057 13 4238
6282 -14.174745702385552 7.1578726272730275 28.40680404912958 14 14 14 1.4282563315127936 8 7168 9 4043 10 4090
6283 -10.908432956605663 -13.913047491510039 33.438843924828156 193 181 165 2.1156747386372432 19 3991 9 4051
6288 -7.9921382289095604 -12.793488458585133 34.369071840295824 255 255 252 0.99082479310880922 14 4140 19 4054 20 4216
6289 5.5925331913074698 -8.4403298963067392 23.349963131322934 159 201 200 0.54569624093823532 8 7366 9 4122
6291 27.819981807867336 15.181882199725832 63.17072569006671 104 86 64 2.4814755978811238 8 7389 9 4142
6292 -0.01261702647619365 6.9803194097112211 30.762959570628951 18 24 20 1.1401701383177665 2 7159 3 7256 9 4143
6293 -1.7370999190990533 7.7868219093962043 26.055092777445427 212 214 211 1.5321588294188839 19 4110 9 4145 20 4262
6295 -1.8210431550217767 -14.758304910378596 33.102501371803356 100 108 110 0.25734755680629906 11 4288 9 4147
6296 -12.492157253799411 -11.584474441384467 34.377861845966358 43 31 18 0.53120468441520163 18 4138 1 7201
6297 9.3027147965573995 -1.3555236234840504 19.690143705212559 151 186 162 1.2941061820902648 8 7407 10 4208
6298 3.8098569501964983 7.1895661640524038 27.532132921787053 246 252 248 1.8557608339651315 11 4307 19 4134 20 4293
6300 4.3117589306271231 11.538054852819274 27.488405364134529 162 159 154 0.95910934342284049 8 7399 12 4776 9 4179 17 4079
6301 -1.2143384342734804 -14.666732246246799 33.216235518969611 50 50 50 2.3757864409426386 3 7298 9 4181 10 4229
6302 6.5752664748761331 -0.37971341437812139 27.912504253225407 82 103 75 2.3850324811208572 11 4321 9 4190 1 7245 10 4240 20 4307
6304 1.734182891336568 1.1677948515332746 27.355434305247847 96 130 87 0.05376892751128233 9 4193 20 4308
6306 4.5297214199128595 -1.6802699544661688 25.793364928957821 22 35 17 1.7294556893733317 11 4357 1 7275 20 4340
6308 5.3539278100205099 8.0280300934617124 28.537247849024531 202 201 197 2.2155788978702025 7 7590 10 4274 2 7204 9 4223
6309 -13.883848202282854 -10.494569884462479 29.27186752342557 26 25 22 2.0596155037101291 6 3543 7 3611 13 112 9 71 11 73 12 115 10 52
6310 -5.5979198718915031 -6.6823412589347582 24.329062981258197 207 234 216 1.4416661660305041 8 406 2 409 9 163 11 194 13 255 12 293 19 121 1 404 10 172
6311 0.85964975342259009 -6.4800907091067659 30.418209058430083 180 223 154 1.6021975203746208 11 439 8 3775 9 343 12 507 19 421
6312 -6.8832672036036398 2.3782391225751374 29.340405175554331 23 28 20 1.6137437463197508 3 2625 2 2571 9 1430 8 2770 11 1440
6313 -5.4946211857779659 -5.1050833714869919 25.074959852605261 97 127 105 1.4653738378732526 14 431 7 809 4 3741 3 3729 2 3616
6314 10.137126668843107 -11.621997532739782 24.318990832813622 189 182 167 2.7012423764070275 4 5739 5 3297 9 2684 4 5008 15 19 3 5087
6315 -10.102542569804047 7.3692592706738305 24.159277659825005 168 162 158 2.7720290311106086 11 4071 17 3862 15 3839 16 4055 12 4523 9 3947 3 6938
6316 14.14466872292676 11.967328996596429 25.91176138465158 158 146 139 1.6975345883736717 8 6405 12 3176 19 2690 11 2707
6317 -10.669075508468147 -14.161051348074828 31.808705430394003 166 176 151 2.1874832156580348 13 25 15 77 11 15 14 43 10 9
6318 -9.3851922650541528 6.9111299167427571 27.961166167568713 42 38 26 1.545640859137158 12 3961 11 3723 17 3510 14 3643 4 6660 9 3833 10 3687
6319 -1.7457468176830679 -14.4891435691249 32.037131974207291 58 59 60 2.3878678854152025 6 3437 7 3546 4 3356 15 1770 2 59 5 2298 3 3308 1 71 10 20
6321 -6.2135187900788686 -6.4358916081797402 24.996963550432898 186 198 149 1.3977280626080804 7 5383 4 3594 3 5208 8 6068 2 5783 9 3237 12 3778 1 6231
6322 -9.5957696163222757 7.5247544512071531 24.225761037686926 109 105 101 1.7938696269764174 7 7461 9 4146 3 7260 8 7359
6323 -7.5104304753344149 -12.398390367112251 34.675053334786568 220 221 214 2.0754298718395279 6 6422 11 2785 17 3067 4 6194 5 3855 15 2614 16 3249 13 2946 8 6462 3 6277 18 3172 19 2757 9 3204 12 3739 1 6188 10 3216 20 2838
6324 -6.5827144555974186 -0.94217789145329567 21.559082403634171 121 144 89 0.63417625146832024 12 1139 9 865
6325 -16.081548846805152 1.598731171346025 35.230629919229685 201 180 151 0.95199387395209056 12 1616 9 1234
6326 50.238638519305596 6.3982562500015794 70.548284928707659 45 28 20 2.1250680862182079 8 4713 9 1322 1 2350 2 4392 12 3517 10 1426
6327 -14.644600735733473 4.1925232010954057 30.727863195258497 31 24 18 1.1346905780005683 12 1977 9 1556
6328 -13.037438215706914 3.3249701701481018 26.555546198210727 100 93 65 0.28064393495221029 1 2769 20 1660
6331 -11.754838708987023 8.2241211337038784 23.379210836791284 172 162 152 1.565715666250528 11 1888 9 2634
6332 8.0103649631616385 -11.461917222355279 23.259375749940304 86 86 74 1.6531881899598473 11 2734 9 2671 10 2732
6333 0.51922316070531283 -10.269289157744467 32.027036126390982 149 145 133 0.094737673701445896 11 2021 9 2719
6334 0.13616546061275925 1.2109058381815156 25.997144281737068 117 160 117 1.2352365621917545 19 2957 1 6356
6335 -14.185265192940776 5.9676016315238885 29.883782891500243 19 18 16 2.2340232714195025 8 6323 1 5589
6336 -13.368631597948399 7.2796686265525201 34.84390855845286 119 118 113 0.99041482995578556 12 3620 9 3102
6337 -11.715331954396987 7.1199172109113578 31.126515651889779 5 7 6 1.5657956483283815 11 2645 9 3116 10 2634
6338 7.4734305221297692 8.907653183238498 27.659737252794855 62 58 49 1.0244704019464326 9 3145 10 3158
6339 -14.178365997655851 -10.336419914561716 29.640526500015234 190 191 177 1.2969168319262203 7 6546 10 3731
6340 35.115233723521271 11.062155983897885 71.345878018921752 83 75 64 1.1289716886269183 8 6868 9 3639 20 3716
6341 4.8641288538312786 10.800258785553163 27.137610311125165 187 186 182 1.2223676500599561 4 6678 1 6449 20 3760
6342 -1.6355519382239654 -10.950237940822337 34.739027645975952 147 133 106 1.8064161548192603 1 6499 20 3592 11 3556 10 3515
6343 -13.58900397625631 7.1675947335527219 34.607355649472524 21 20 16 0.40631241696071241 19 3774 1 6655
6344 1.2990045407581727 7.4062456808564301 26.216372313845977 205 205 205 1.9131895569825996 13 4029 9 3837
6345 6.5038547857400406 -14.536119867885315 34.401055826800714 144 146 135 0.51695807373361058 11 4086 9 3954
6346 7.0752483538871456 -10.949096322245911 25.405341924294788 159 161 147 0.63500751378370013 9 4114 1 7164
6347 39.902853455443648 10.843284050418086 70.624200898697026 3 4 8 0.993464869949236 12 4723 9 4136 10 4180
6348 -3.3305119669219865 -3.2221390214137844 19.030834031274534 142 181 126 0.20097893317164056 12 4742 9 4155
6349 -8.0936904334266728 7.4094265273771285 27.119596571013005 255 255 255 1.7127594100707064 2 7161 8 7394 9 4173
6350 -11.735688179320576 0.94218270979673946 34.595544940308265 189 201 155 0.86116196868780082 11 4323 9 4192
6351 -10.534983576946296 2.5007381690139887 34.703322987014126 47 49 38 2.1599920352576372 12 4784 9 4195 10 4243
6353 -1.5339557666824568 -14.532625503802453 32.242589547918627 125 136 140 1.4195401906555027 2 60 3 3309 10 21 1 72
6354 -12.47596789617803 -11.411593086316886 29.085138975598074 223 222 191 1.3477794501194289 11 55 10 36 20 51
6355 14.522947051486261 -11.617576174816797 24.0233739870846 0 0 0 0.84229949259297676 2 3310 9 49
6356 14.522947051486261 -11.617576174816797 24.0233739870846 0 0 0 0.84229949259297676 2 3311 9 50
6357 -16.370507551473302 -12.19101299044752 34.729120711167944 138 138 130 1.9474039899651636 9 70 10 48 20 82 17 150
6358 1.6610877712943732 -11.09506116821357 33.770850326346704 57 84 69 0.13135402783286773 4 273 1 198
6359 7.1625616884929588 -7.423090261817995 21.215705716631078 225 243 210 0.27553001917752112 2 235 1 270 10 88
6360 7.2388804779063669 -6.4589042181924317 20.609699392476639 168 203 176 0.32470122102757348 2 384 1 483
6361 41.110622446996345 -12.231587539372056 53.50549948778297 188 172 156 1.844414442686362 12 542 19 456 1 675
6362 -1.2511387635348554 -6.7432822788201427 33.648951678538836 151 183 166 0.36706112975294747 7 845 1 756
6363 -5.3882808898460546 -4.7879896599716067 25.507090280666905 40 60 40 1.3642307314801885 9 443 1 862 20 469
6364 6.6956668889656816 -4.0978936254897302 26.217096225203683 131 170 161 0.5013261342056553 2 1183 1 1233 10 648
6365 1.5574215302976195 -2.6002640368933232 30.176338112745142 153 194 128 1.3076406829535097 8 4178 1 1434 20 763
6366 6.0222303712991678 -2.1623148304503417 25.356790590886249 26 43 27 1.1633092656122614 11 804 1 1549 10 813 20 710 19 816
6367 5.9622385747265714 -2.1537664765268625 25.208269286991587 26 43 27 0.57379747884699583 11 805 1 1550 20 709
6368 2.6795816462538835 -1.3532200468000453 26.50651680993386 156 204 164 0.6090003232419603 11 937 1 1757 20 856
6369 0.17135517415994256 -0.66497866980011078 26.968553277332415 37 57 32 1.9185546908648847 19 1027 1 1887
6370 12.155259080220697 0.3273235196651203 26.186780629125092 84 105 64 0.95603685575040842 3 2174 13 1241 1 2210
6371 9.5301671610813941 0.76503643796119924 18.49385659335351 54 65 32 1.0382438133191303 2 2542 1 2471
6372 -6.3949310794980105 2.3760516938698344 29.228411097587063 117 135 73 1.2693321536857431 11 1446 1 2492 20 1527
6373 6.6640148255248794 1.9665275273096541 26.291024086431193 135 133 112 1.6936613530310551 8 2718 1 2573
6374 48.262628331821993 8.0938072237943803 70.435439734986588 35 49 23 1.500148916953614 2 2548 3 2618 8 2831 1 2599 12 1926
6375 -7.3629535886353956 2.808065314495662 29.586883032995644 61 80 52 0.65755730895719677 11 1532 1 2636 10 1447
6376 -8.7735852746922234 3.5077537482000265 30.1488425356489 51 73 37 1.4686375683318063 9 1525 1 2727 10 1553 11 1570
6377 -8.6364437808396062 3.5255011758289947 30.076731869805837 12 23 11 0.58151169691883453 2 2754 1 2733 10 1556 11 1575
6378 7.4917641051625132 6.39287573838741 35.555720242784218 59 58 53 2.0067925422398889 5 2035 11 1651 1 2859
6380 13.590743004687985 3.895931080207736 22.126981524154402 183 160 118 1.7324199587040046 2 2938 6 4985 1 2914
6381 -10.844121302464524 6.4728176187222397 31.105989381088211 37 38 33 1.2792659715707964 2 3016 3 2995 1 2935
6382 -13.928337018876181 6.5781948560404455 29.696861990292359 37 30 24 1.1031721323888302 8 3194 1 3050
6383 -12.045399274537802 7.2238893932755968 29.758830040629196 77 78 62 1.493679080839887 8 3264 10 1779 20 1863
6384 -12.017262113568293 7.26223161296224 31.828315255335333 59 69 62 0.0049632734496040873 2 4802 1 3059
6385 -13.459922994714246 7.0961293031988459 29.200449846947624 0 0 0 2.4272969263247095 2 3132 7 3355
6386 -12.370629219069684 7.4319917622974465 30.057714171833847 14 12 13 0.19737791924871156 2 3135 1 3099
6388 -8.7436026467263233 7.0726258782095215 27.557554656277933 254 255 254 0.69710286304546454 2 3157 1 3119 10 1786
6389 -12.895742084292245 6.8995875180824378 25.215103905241541 203 209 221 2.0012311009399637 7 3422 1 3154
6390 -9.7105329951807295 7.060122390448214 23.859632880559463 254 255 255 3.0691062255493273 7 5191 1 3170
6391 -4.4232046469311781 6.0127485256409887 18.629631392953435 229 226 217 0.73424393465019366 2 3207 11 1874 1 3182 20 1893
6392 -4.4213269282862511 6.0197226403319588 18.645905792512483 229 226 217 0.26907400457589542 11 1875 1 3183 20 1894
6395 -12.569092702520294 -15.075993357895168 34.547056880096711 195 184 162 2.0469598622705352 2 50 1 3271 10 7
6396 -1.2282211603795063 -13.985933185803797 32.260557936277053 191 202 196 1.6758687733063016 2 96 3 3332 5 86 10 37
6397 -12.963407160716894 -11.309408700295696 28.143330206893761 45 49 26 2.1620827994020155 9 47 10 33 11 32 20 1952
6398 -12.564658830998045 -11.304770022568011 28.285683251619151 26 33 22 1.8629327532605435 9 55 10 1900 11 2761 20 2822
6399 10.237844559178219 -11.69865700003036 24.478976541050322 188 181 162 0.87387854713570645 2 3308 1 3303 10 40
6400 10.237844559178225 -11.698657000030364 24.478976541050333 188 181 162 0.8738785471357744 2 3307 1 3304 10 39
6401 -0.73756906146484968 -11.00152260556586 32.480486313439307 145 179 154 0.7596534748076178 2 3346 1 3326
6403 -15.04830287237052 -9.3560035779849358 39.753680267298883 164 134 96 0.42235043077304457 2 3461 9 188 1 3434 10 204
6404 -2.1549558683446448 -6.9530045949277914 32.800906579724767 144 185 167 1.4235472425837377 12 499 1 3630
6405 2.1768989676234667 -5.8216963480044148 27.642268417702557 103 138 105 1.3088890175087937 9 417 1 3645 10 428
6406 1.0213655314268952 -5.9123263503508863 30.472910897863432 172 214 138 0.94754735235114484 9 412 1 3694 10 423
6407 1.9996730288052449 -2.8445899924988085 28.54097398943107 160 207 170 0.91577096161409322 11 797 1 3956 10 729 20 687
6408 -17.806044455375162 -2.0307431892865946 45.585488886684594 208 175 122 1.6882896515037575 9 853 1 3973 10 835
6409 -4.0875497765637938 -1.4830055914765301 23.384686281369692 125 167 137 1.8135885959550391 3 4142 1 4041
6410 4.838147269501305 -1.7999425961095594 26.742634759315301 21 34 14 0.80514575973987812 11 877 1 4055 10 874
6411 -12.804130091623788 -0.62427962262104586 32.098806434705345 236 192 114 1.3281681152169411 11 1032 1 4080 10 947 20 1124
6412 -12.391268084802835 -0.57699011612391815 31.907511698376865 42 51 33 0.43414765475628814 11 1036 1 4086 10 948
6413 1.7869574434613513 -0.7862645343371697 30.085799528986421 137 178 122 1.0832215626393664 11 1010 19 1037 1 4117 10 979 20 1011
6416 7.294667721445089 -1.2119423542032832 23.434694219260617 139 160 94 1.3338129064265698 2 4142 1 4132 10 931 9 926
6418 8.6160233439154794 -0.97588329986738109 19.784863900331526 69 61 42 1.5335800146049934 2 4213 3 4240 1 4178
6419 12.893001675825277 0.22646397774194482 24.895266839425904 0 0 0 0.62374615926868393 4 2318 5 1450
6421 -9.9675437584741839 2.6316630335808839 30.944929113143544 31 40 23 1.9992707202331275 9 2425 11 1430 1 4521 20 2540
6422 -8.8743088404419694 2.81526813060084 30.812597975229277 61 79 53 1.1882648347301907 2 2670 1 4523 10 1436
6423 1.116038339230353 2.4573215319604111 29.347164456187116 56 61 38 1.8393655303561163 9 2401 1 4554 10 3020 11 2515
6424 12.360555527320846 2.2098258433830233 25.977657306262792 0 0 0 1.0587866996320265 8 4791 14 2467
6425 -6.0240119736583786 2.9809814767471075 29.663962994810269 41 57 30 1.81980728925603 12 1878 1 4617 10 1513 20 1593
6426 30.281937164731527 12.016262222372514 71.790350230241458 114 95 65 1.7552959087755045 2 4618 14 1669 17 1587 1 4664
6427 30.76238009755928 12.006375768368603 71.342229861290321 0 0 0 2.5126068290492505 7 5026 16 1795
6428 -12.207940581447698 3.0670172608848345 25.42494096012086 68 64 37 0.95560892077564441 7 3030 1 4686
6429 -10.032661417764627 4.2549772466236409 30.304943576090356 48 64 35 0.56124284640364241 2 4646 1 4693 20 2625
6431 50.42151273759243 12.228915326282646 65.690247511449201 115 95 71 1.9609638712616171 12 2029 19 1683 1 4717 20 1657
6432 52.015420661491078 12.495081076070136 66.902578001844915 103 87 61 1.3191450721022029 12 3012 19 1684 1 4718
6433 13.289948533554863 3.3856448963422388 22.149952844000463 67 80 37 2.3913785340868037 3 4822 1 4732
6436 -14.461184703780409 7.5997935127485912 35.025664218857216 155 156 151 1.166186105584178 11 1771 1 4813
6437 -13.287829922055707 7.3783557105315447 34.520661249369141 42 38 34 2.1404058998466136 12 2107 1 4816
6438 -5.0729554455148245 6.2651593938128363 29.440920422909837 101 113 93 0.41489860190648836 2 3036 11 1745 1 4833
6439 -5.0899951287436718 6.4085335938722334 29.294427902065038 86 103 85 0.37210091715843979 2 3037 1 4834 10 1725
6441 7.320408039811988 7.1951724314290644 27.754111217018334 68 65 58 2.0950821208291051 12 2180 17 2998 1 4881
6442 5.3689292818520107 7.1977774143600168 27.371171314784551 204 214 223 0.653125236065495 2 4850 1 4897 10 1771
6443 -4.2136349096716819 5.160243459173695 18.491503693586242 84 107 64 1.0438200954378454 9 1765 11 1839 1 4921 10 1799
6449 -5.9413271836969308 9.7151912106685057 24.839188959172311 0 0 0 0.59732564424588364 7 5231 9 1813
6450 -6.9778581039516991 10.186139097809338 24.639502081309388 0 0 0 0.30328701545631409 7 5239 9 1824
6451 -7.7189617516619879 -14.271979436609763 32.791530295006844 254 255 253 0.95349232101509229 8 5246 9 1851 7 5277 10 2728
6452 13.757040106988097 -11.513428046160957 23.181168682581575 0 0 0 0.28693425148986929 8 5236 9 1854
6454 -12.597033028498215 -11.191080148833482 28.442296173180711 0 0 0 0.81451793323358213 9 1871 11 1962
6455 14.048868921833989 -11.293756223329273 22.896152210251554 0 0 0 0.80498652784321778 8 5238 9 1855
6456 -17.704432382104553 -12.061061165662462 33.478283437902121 73 71 45 0.85359863025086957 3 182 1 5013
6459 -6.348899014365899 -6.8698801868370314 25.120981496947078 60 73 66 1.0686638914186257 9 1938 1 5104 10 1990 11 189
6460 2.9450755519199436 -8.2363009945498433 32.609810596993654 61 95 79 1.3823406193255812 11 2085 1 5124 10 2025
6462 -17.229074062835096 -4.9292044746414714 49.596994689497194 220 183 133 1.1639645521724564 11 752 1 5249 10 2205
6463 5.7257121954655847 -3.0775949137212608 25.817395985212578 45 62 42 2.1409719866514543 11 748 1 5273 10 2228
6465 -6.4968354185477226 -1.5338525932876526 21.802676911781511 249 255 240 0.64365774157288247 9 2189 1 5321 10 850
6466 -12.246834020438204 -0.65774554051259104 31.922391537961904 68 70 46 0.36007553415146992 11 1037 1 5330 10 2296
6467 -19.199220331192219 0.37100768224942804 40.332562410700795 73 66 56 2.2273757139923895 7 5739 9 2292 12 2778 1 5339
6468 -6.2029473857659845 -0.90740258407214858 20.842782054914395 25 34 22 1.1606898350538499 11 2307 1 5358 10 2279
6469 51.878084032550241 7.5412817803564529 72.785065648202959 34 21 12 1.3521390494733834 2 5433 12 2943 18 2471 1 5482
6470 -1.4165467895457122 1.4246161735729046 21.789400432857136 110 154 99 0.86740040973216503 11 1288 1 5492 20 1319
6471 11.039678490065675 1.8138403119487425 23.701561282546255 219 219 145 0.61077205785991362 8 5754 1 5500 10 2482
6472 -9.4852934965092643 3.1612201517735845 30.276739556815226 23 34 17 1.4793546614563406 9 1482 1 5508 10 1501 11 1520 20 1576
6474 52.789664727842563 11.671261281273212 67.397165992493385 164 135 103 1.3968206323987586 19 2531 1 5538
6475 -14.655540332882063 4.4375846228695783 29.901526229074616 0 0 0 0.257117521176566 8 5820 9 3057
6477 -12.88669577810775 5.4796248053438115 30.385665339519605 102 93 64 1.9765198964520228 19 2544 1 5566
6478 -5.059360560673241 5.5874417075075495 30.518522860179651 50 55 48 0.87997578939931154 2 5541 1 5571 20 2647
6479 -10.873761769043874 6.3257402709764285 31.043706205814317 87 89 84 1.5295079037744079 2 4741 3 5686 1 5591
6480 -8.2188615784735681 6.1210313273817381 30.977816696249263 69 71 67 0.67644420509101677 3 5689 4 4811 1 5596
6481 0.1799474734382987 6.9110298689948362 33.290612359436494 44 46 41 1.7962144109187017 2 4754 1 5601 10 2608
6484 -11.555477003006445 7.2188842536325017 31.002136243742857 7 8 10 2.398229562432443 9 2576 1 5626 10 1744 11 1780
6486 -11.100595440438882 7.3641370437134048 24.211288929327164 0 0 0 0.44689623248342392 3 5767 9 2624
6488 13.589560865140324 12.161356605255882 27.172509247195027 243 223 212 2.1559130922880514 14 1861 1 5702 10 1851
6490 -6.0048256834225207 10.673694671332232 24.886881609655639 224 213 207 1.3196671704546663 15 2994 1 5706
6491 -13.542801971486066 -14.310604666546444 34.424453821542414 0 0 0 1.0045424676451293 9 3185 14 2724
6492 7.3146778977160318 -11.784198884919114 23.973687197632344 156 154 133 1.9033374091157189 2 5699 11 2731 1 5730
6493 9.1465022175212027 -11.469525000074992 24.094371589066363 0 0 0 1.3863306641936726 8 6434 9 2682 11 2752 10 2746
6496 -8.3199004626701942 -12.495434005553058 34.927142683042625 253 255 241 1.3090955024670683 8 6461 1 5748 10 3215
6497 -5.8885714579870081 -11.976235611236417 33.627475745389297 0 0 0 0.95066080987401469 8 5286 14 2750 14 1948
6498 -10.809924102031669 -11.559186483146375 35.32300709256036 165 145 108 2.0285729219798498 5 2377 19 2768 1 5760
6501 -15.567332562407634 -9.3863341388609616 39.620470909602709 165 133 92 0.7429442709840508 2 5049 1 5803 10 2836
6503 51.367727793867289 -7.0216982854550816 71.831937497027013 102 66 42 0.2781634501964958 18 2883 1 5897
6504 -14.122966407877312 -2.2313096202423179 28.564004329514038 137 122 91 0.51265267551147475 3 5998 1 5907
6505 -1.3632451653784821 1.2357323886996163 22.19866644828695 139 188 133 1.3191904148804452 11 2445 1 6000 10 2435
6506 -1.8940785819904955 2.3757903453376668 20.3310190009968 0 0 0 0.28745066042457112 12 3539 19 2991
6507 1.6580728104949161 4.4231449346626084 29.016580687793383 137 114 83 1.0261290850636715 2 6004 1 6036 10 3063
6508 1.676019280355332 4.4446525014717571 29.12140623695413 137 114 83 0.90412260526532451 2 6005 5 3078 1 6037
6509 -13.994814028358384 6.3493521210434505 31.353959641032159 113 115 110 0.59816806195270433 2 6046 1 6059
6510 -8.3795338039857761 6.5647723094105501 29.376007550651391 27 30 23 1.3438190271515633 18 3077 1 6079 10 3112
6511 -14.425194501746892 6.7301198690479138 29.804558307134457 70 75 71 3.2987777825746507 8 6660 1 6094
6512 -11.198255494644586 7.3354392212169026 29.438883323614832 0 0 0 1.4167078070860541 2 6081 3 6188
6513 -1.333558799386763 7.3332008854084636 25.879160715786515 0 0 0 1.5424182562861906 4 4942 16 3174
6514 0.63698409567725589 7.3602582811908626 26.154428837220834 217 217 215 1.6732083199510983 8 6383 1 6126 10 3152
6515 7.5475133296445316 8.7128908921925863 27.839674689084291 61 56 51 0.0030612814815634418 2 6396 1 6128
6517 9.7804357413397796 11.766603657159216 31.21279189075878 168 155 138 1.4839506116334855 11 3194 13 2831 17 3012 1 6134
6518 -12.88609115301686 -14.265326638643213 35.032063412017109 0 0 0 0.13958909188266372 18 3162 19 3167
6519 8.2615635022161733 -11.704170855944627 24.768043011789668 93 95 82 1.1921339288013739 2 6140 12 3707 1 6170
6520 -12.707916745597586 -13.083293782393653 35.445443400741361 0 0 0 1.67745039524629 3 5838 8 6018 19 3176
6523 -14.160134445204431 -10.46092033169997 29.554771713208986 197 198 186 0.56661341323862247 3 6274 1 6185
6524 -13.42430013823995 -10.037134766804375 29.621029349531632 182 157 120 2.1967295568436662 4 6205 1 6194
6525 -4.9844782472206441 -9.8338237464650202 29.697377976344296 160 144 111 2.2068786466250447 5 2379 1 6198
6526 0.77436253356909102 -11.147851569791928 35.016796872314757 0 0 0 2.0548703627470459 2 6182 12 3762
6527 2.6729388331978092 -11.041544364074708 34.813317192559033 157 150 138 1.9114116758448612 19 3196 10 3240
6528 -2.5711116687144164 -6.0689523411326487 29.879491854484325 123 166 123 0.54168238862457607 3 6326 1 6254
6529 2.5651111795706103 -0.24670902484072241 27.163567543864531 123 171 131 1.4196204457187163 8 6576 1 6336 20 3671 11 3645
6530 1.9477874599930438 1.8812822729711598 29.882819594398839 113 145 98 1.0169408024933964 11 3422 1 6368 20 3452
6531 3.3290850960381801 2.3159090747882485 28.477226895889835 64 80 51 1.3791786256074428 9 3363 1 6378 10 3392
6532 32.032531551959977 12.458707693543683 72.278581934796321 0 0 0 1.2274919497761305 7 6399 9 3052 17 2955
6534 -11.991019486859198 5.8764106959547897 31.953251648708019 77 82 73 0.56554828490859776 2 6016 1 6392
6535 -6.2240794080400139 5.860913283576707 30.624612724258821 89 95 91 0.19323397338381371 2 6365 1 6395
6537 -8.5927615619601703 7.0154395834805543 27.986906653635639 153 142 93 2.0102024846144779 9 3134 11 3485 20 3222 1 6434
6538 -5.6713790302837053 7.2798707150111088 24.868573635888506 230 226 225 1.3553383957004115 9 3438 1 6443 10 3469
6539 11.168748892004766 11.98422801485269 32.997168795483034 161 148 132 0.84847493820232034 11 3499 1 6448 20 3543
6541 1.7874687563267537 11.6337691039697 27.114729014552839 177 173 170 0.89179525301321583 2 6414 9 3453 1 6458
6542 -13.154436503774308 -11.884174771927777 28.103286481857289 84 102 43 1.4338226131113316 11 3518 1 6467
6543 -13.959636725079136 -14.309625658115253 35.67079923284227 190 187 168 1.2559925790675504 9 3186 1 6471
6544 9.528787163476002 -11.445252831574583 23.88681699007784 0 0 0 1.7176273249281087 2 6429 12 3999 4 6158 1 6478
6545 9.8347023788944696 -11.690752242282317 24.50588813471305 110 110 98 1.4324034430118282 2 6430 1 6479 10 3206
6547 -12.683112975508589 -12.496482649047572 34.337508706829389 242 235 216 2.3362030447514481 11 3760 19 3448 19 3651 20 3783 10 3728
6548 -6.6426372938661631 -5.0338833508718723 24.656095757464946 46 65 46 1.421033222933759 2 6500 9 3520 1 6534
6550 2.0369184882858833 -1.1068947058623246 29.971427466279131 63 92 69 0.40498235637354141 1 6590 20 3857
6551 -7.2446427690233763 -0.50666331460568892 21.430017417416206 236 255 237 0.52516969281918557 12 3858 1 6606
6552 1.0986705218893873 4.378422682343782 30.00724367101385 0 0 0 0.13395024100775743 12 3918 19 3346
6553 -11.417611746906495 5.4813870425729352 31.391915144052994 45 51 44 1.5233585701755386 2 6765 5 4098 1 6647
6554 -13.789383817909746 5.693828729976957 30.270622780764629 171 166 160 1.3940744661970783 2 6354 3 6458 1 6653
6556 11.953808980862755 11.92906056905688 33.263106605658976 90 81 72 1.3683747794675274 2 6623 20 3544 1 6692
6557 -4.6159417215098006 6.036686179368103 19.054295078358475 230 226 225 1.1016175916237749 2 6624 9 3682 1 6694
6558 -0.28939584559247095 10.70622645122145 26.083529422238083 0 0 0 0.29834754977006683 7 7016 9 3688
6560 -13.654831450298419 -11.37635524696948 27.777131658553024 67 75 54 0.99750518169607527 2 6643 1 6712
6561 -12.63172564803396 -14.623645521418847 35.086315616269637 0 0 0 2.5444588043274194 2 6640 19 3641
6563 0.11351010033315176 -11.006471841421266 36.576162142415825 122 160 131 1.5190581656569684 9 3718 11 3968 1 6727
6564 3.101683472571712 -9.7545922170402815 33.712492743054852 158 149 132 0.12304785107213601 1 6732 10 3530
6565 2.3903570954842741 -7.6517609602551291 32.259779291764396 49 62 45 1.1019258921038857 11 3804 1 6746 10 3762
6566 11.525383672097336 -3.2203018271352319 21.575765802622755 105 71 46 0.45685968032075902 2 6703 1 6783
6567 -1.0727849613454845 0.92094388232771396 23.575115481991364 158 203 160 2.4926583702288885 19 3734 1 6821 20 3433
6568 53.388638128117982 12.259370722157177 67.40754688696228 94 79 60 2.0825056098939925 19 3765 1 6846
6569 -7.2108018303326702 6.6158841785951337 30.082872606318713 35 38 31 0.0032887435996764563 2 6776 1 6864
6576 2.4629528769134099 -1.0658684848782447 27.337511068120314 62 89 54 1.2922146924129012 1 6945 20 3992
6577 1.8945833413805979 -0.24474095978825294 27.402711614679294 128 173 134 1.0983364283282016 1 6955 20 4003
6580 14.508040764696648 12.200664284008909 35.517466432565378 147 138 123 1.9547633805840927 2 6915 9 3946 1 7004 10 3892
6581 -0.21976825884895715 10.65588888016833 26.153904358224132 201 197 196 0.51223861000292437 13 4187 1 7005
6582 -2.4196116410145829 2.788840998135957 19.835295404431889 153 200 156 2.3523830482572943 2 6993 9 4028 1 7075 10 4075
6583 -7.2733834080435145 6.4587605266326866 30.173666342428323 0 0 0 0.15078141558081451 8 7262 9 4042 10 3992
6584 7.5050427473087744 11.629073529052688 25.946583153317903 194 194 210 0.92922909009148857 2 6918 1 7093
6585 12.634253081733938 -12.109529059110116 28.582197873717703 184 176 163 1.3274799783149365 2 7083 1 7101
6586 1.9362513583699004 2.4005363909085347 29.77504870251154 163 173 141 1.6648804490441849 11 4221 1 7138 10 4142
6587 1.9362513583699004 2.4005363909085347 29.77504870251154 163 173 141 1.6648804490441849 11 4220 1 7139 10 4143
6593 -11.706917877496593 -10.741277314552026 31.694689926566507 0 0 0 2.7593156128598171 8 7365 9 4150
6595 5.1244258452905393 -3.588477545708773 26.307193248627566 1 7 1 1.6605151248771957 9 4159 1 7212
6598 3.1197571340073003 2.4973915023596662 30.041365544180952 60 72 48 1.2603602245983043 2 7150 10 4178
6599 6.4620022694093819 7.6005703553888333 27.722502073978994 200 200 200 1.068915115651436 12 4787 10 4248
6600 10.632359657057711 10.125222247817732 33.155831405853696 59 56 49 1.3110311983319978 12 4803 1 7260
6601 -2.1843651348883664 -12.513786284021768 32.973321283689174 0 0 0 1.5111388869723501 9 4200 18 4180
6603 -0.52933352472023021 5.7347406788935924 28.53293258763355 51 56 50 0.24640878375892977 11 4358 1 7279
6604 6.0450708051965796 8.8578015643363344 31.313900674638518 0 0 0 3.5674877965862408 8 7434 12 4811
6607 -5.9428361156185412 9.7472874487381933 24.950750962497292 171 166 160 1.8404483373307237 2 4901 14 1807 6 5147 17 1701 4 4967 16 1900 8 5194 9 1814 1 4951 10 1853
6608 -18.425429111510713 -3.9624395869434426 45.526807956335141 127 127 107 0.59310050298156713 8 6802 9 3551 10 3322
6609 -1.9776455046664803 1.3165332837724113 21.889486605827802 182 225 181 1.0220631500774944 3 2546 2 2587 1 2536 8 2688 3 4658
6610 -14.267879587405471 5.3813581574737777 29.844224612790605 19 16 13 1.1984614080784655 8 7159 9 4040 10 4083
6611 0.81188646953464783 -6.6845233250837488 30.469137241376874 190 232 159 0.97768825089837097 11 438 8 3774 2 3572 1 3638 12 506 19 334 9 342 4 3657
6612 -7.7050238759640903 -4.9745544533740462 35.205720986855376 48 59 43 1.642679757281253 8 4011 3 1105 2 3761 9 577 1 3793 11 611 18 633 12 777 19 660 10 613 20 606
6613 7.1023185870955947 10.729103784130091 27.542292523692666 125 122 119 1.7847510600837535 4 6975 1 6874 6 7176 7 7201 3 6764 15 3696 16 3919
6614 1.7806027558339437 -0.78658132702330075 30.053346434087945 85 109 78 1.1816802883295774 2 4127 9 984 11 1011 19 1038 1 4118 10 978 20 1010
6615 7.1361810882257304 -1.1309868248235986 23.466691127736876 93 105 60 1.4898362071345028 6 4274 17 890 7 4397 5 1130 13 2378 18 856 12 1214 11 2325 19 909 1 4130 2 1861 20 2297
6616 5.843557851132144 -8.1876794769946653 24.081239090385637 131 163 152 2.1903471075552661 2 4994 1 5063 8 5300 9 1917 10 1946 3 3409
6617 0.59728381772481232 6.8668262149777837 30.528347340380254 88 78 61 1.4359947369023884 14 2624 3 5717 12 3087 9 2551 1 5619 11 2637 13 2770 10 3124 20 2669
6618 -1.5982171143818336 -0.77034937816750992 26.033476630742573 130 171 137 1.7717139391970622 17 3428 14 3567 7 6927 3 6667 1 5942 12 3859 19 2930 20 3025
6619 -12.471894462910486 -12.805054464739625 34.777140562950947 168 165 154 1.456232276877939 2 6164 12 3235 9 3201 1 6177 6 6029 11 3259 17 2627 7 6142 4 5781 5 3349 15 2608 16 2819 13 2938 10 3212 20 3296
6620 -4.3205149917579169 5.9259729818679787 18.416769041559959 57 74 40 1.9754810441520925 9 1795 1 4938 8 5176 3 5023 2 4892 12 2237 19 1845 10 1827 11 1876 20 1896
6621 5.8352507645751599 -8.1836418121123913 24.05825169044639 129 162 150 2.2089783960297944 3 3410 2 4995 1 5064 8 5301 11 2004 9 1918 10 1945
6622 -9.546999826530012 6.9521540326367814 27.725504978636025 82 72 51 2.1874491469364146 7 3378 1 3117 6 3273 16 1845 18 1746 8 3307 20 1868
6624 21.5996905725315 -11.903927500742668 33.697100762206823 39 34 32 2.8794455684402855 3 225 4 3444 1 214 7 3618 9 97
6625 -3.3714689766788815 10.447853167308192 25.504464941463258 37 27 31 1.6746890086024246 11 2708 6 5944 17 2541 14 2675 7 6061 4 5712 13 2844 8 5962 3 5787 2 5668 12 3164 9 2647 1 5696 18 2656 19 2685 10 2702 20 2779
6626 -4.4685866099517497 5.9777950003974283 18.795940024811664 61 66 52 1.2159483165474119 9 1792 11 2685 1 4932 2 4889 12 2232 10 2682 20 2755
6627 0.79493900366031245 3.4535412518693858 29.672313560130199 12 14 10 1.6034106428864139 13 3207 1 5530 2 5490 11 2531 10 2520 20 2574
6628 10.194395203976693 -11.750064926435281 27.089239202653047 59 59 52 1.8619256439822212 2 6156 18 3147 1 6183 10 2763 20 3279
6629 -8.0778957529204494 -4.5271418278407243 34.960328768758018 51 52 32 2.0500874121440402 3 1213 1 3792 11 664 9 578 10 2191
6630 -10.809569021738101 -13.040895245765105 34.489922676828357 89 89 84 1.863592418164052 17 3330 9 3467 14 3451 1 6482 20 3569
6631 -5.5491738729564339 5.6737574458641999 31.394985694324582 72 79 60 0.29998124692090056 2 2903 1 2887
6632 -14.618497310968934 5.8925028960033501 30.26075623781108 132 130 118 2.2334014856268762 2 2946 1 2920
6633 -13.646202657516557 7.0768142634473845 30.767302017583283 72 69 54 3.2678498600559536 8 3260 1 3053
6634 -13.028031010617404 7.1172140525871148 29.031627008792203 0 0 0 0.24738579292813728 9 1748 11 1817
6635 8.1523309468238825 11.709826816400934 27.926866194650589 127 127 132 0.32016608894711868 7 3477 1 3213
6636 -6.5258955159508041 -14.195850786550054 34.063154339673538 205 218 224 1.2765081991873615 2 3318 1 3283
6637 -1.07226919368438 -6.8244856667975249 31.872909475025928 178 202 198 0.025296514223086767 2 3570 1 3637
6638 6.7343751122648063 2.0318890222336852 27.532369860408895 124 122 99 1.3406971964048517 9 1380 1 4572
6639 -14.010406854015972 6.2494234379001217 29.965792012135797 160 160 149 2.5861941768929619 2 3002 3 4918 1 4810
6640 -3.5871822561957831 3.6529648787635147 19.208273385023347 21 28 21 1.1076750485258737 11 1676 1 4839 10 1692
6641 -2.9562005189854608 3.4375001595138333 18.707369733620595 10 13 8 1.3825966056369934 7 5061 1 4840
6642 -7.0018562249259162 7.0636352814422159 26.904148221822421 255 253 254 1.1796583125601612 12 2200 1 4901
6644 50.867506886113851 7.0444805778441992 71.725458253548624 81 66 45 2.6403436147445927 12 2942 18 2448 1 5481
6645 41.829680135920945 15.14730504525005 71.608250749833672 175 146 111 2.6814480743996234 4 6050 1 5558
6646 -14.42319193755195 7.0655250264242566 30.115171201794709 43 40 35 2.0294648109398699 1 5623 10 3138
6647 -17.509430348884742 -12.120950045228234 33.871064777169615 131 124 105 3.1184231597975161 13 3373 1 5743
6648 -6.7120286541030998 -11.332701055227046 34.96803743689938 158 141 115 0.70933211501667603 7 6166 1 5762
6649 -9.4086596865014727 -5.3145418730491913 24.689106875972843 43 47 30 1.4364026400270387 2 5805 1 5848
6650 -0.7724241106152161 -6.4161233769148938 31.530269488192321 132 173 143 0.4409019187890002 2 5813 1 5857
6651 4.7164369083623479 -1.6830399139669101 32.30032376646507 127 173 136 2.1059600650282686 11 2984 1 5918
6652 -12.926017323890887 -16.392380929075859 37.082212882859089 31 33 32 3.6524819609340882 9 2659 1 6152
6653 50.513510534744768 11.161430930214964 71.070240993578693 35 25 16 1.9647896287033872 2 5995 8 6289 12 3570 1 6386 20 3135
6655 6.5981436953250334 10.837613568745828 27.510419455169398 176 173 168 0.67982579124908105 8 6680 12 3975 1 6450
6656 -12.219221667552938 5.656053090906016 29.994993803905512 181 172 165 1.3737304864914113 3 6730 1 6654
6657 6.8135510234627468 -3.9822779043587042 24.558333785801917 47 65 43 1.9197880750187151 2 6514 10 3569 3 6337
6658 18.972728786856919 12.168657420854863 34.336557964650076 177 161 138 0.52044102773842216 14 3848 1 6873
6659 -9.9755419689113527 -11.210552250185913 35.603721391445582 170 147 113 2.1284903922100176 2 6813 1 6898
6660 -5.5785290681435598 7.1445776334782947 24.335517876135857 229 225 224 2.5128865801051736 12 3968 19 3408 1 7001
6661 -13.677336891042184 5.9020606919609291 30.973252509116023 169 164 158 0.32281017613255025 2 7000 1 7081
6662 9.2642132881869532 -10.888193382671155 29.480904790774492 171 205 188 2.4692682082178523 2 7129 1 7203
6663 9.5159925869194222 -3.1336317871499784 21.441266604310762 103 69 44 1.4243785132874682 2 7191 1 7273
6664 -8.2157923469379792 8.2658784848600746 27.579826720005215 251 249 250 0.22657015580626769 11 4366 1 7284
6665 6.8860327051462074 -11.670486085536998 24.439390642891972 84 85 80 1.6250044026761075 3 3314 7 26 11 1952 4 5007 10 1908
6666 -11.086991787412646 -14.670057212809933 33.961873088245255 183 178 158 2.1358548227815453 11 1939 12 2323 10 10 20 1944
6667 -1.7647787390610961 -14.189946245744684 31.406198089029978 0 0 0 2.2283787831218618 9 32 12 53 14 18
6668 -1.2429319362497022 -13.854997754030508 31.86149113233617 0 0 0 1.4910479159800434 1 3287 4 3386
6670 -1.5638698458740603 -9.7826540729178202 34.292349664900961 189 225 160 2.2765426692939537 11 202 10 112 20 186
6671 6.5831969227809601 -7.2807959750105455 22.286889789343288 173 210 202 1.6674611700622795 11 168 18 101 10 145
6672 -15.687024010768281 -9.5937744542674093 39.706287929042496 226 190 141 1.5401696467623129 8 3628 9 184 10 151
6673 -15.687024010768281 -9.5937744542674093 39.706287929042496 226 190 141 1.5401696467623129 8 3627 9 185 10 152
6675 -1.5739750341442269 -8.9334623314633319 35.059520013688861 255 255 217 1.3401045540195022 1 3456 10 227 20 272
6676 -7.7016794918817117 -5.298550418663508 24.984270933793653 230 255 230 1.180417675595093 8 3745 10 336
6677 -6.4237681607974695 -5.339244649669924 25.38088056407441 55 70 51 1.3888018654438998 11 354 10 344 20 322
6678 -6.4237681607974695 -5.339244649669924 25.38088056407441 55 70 51 1.3888018654438998 11 355 10 345 20 323
6679 -4.8179908786891392 -5.3876180107166318 25.826423124667773 180 224 189 0.62821899217043919 1 5165 11 426 10 356
6680 -5.7402589517370499 -4.7813749369284499 25.457710624331245 48 67 48 0.52319813065738874 7 3990 11 491 10 400
6681 2.0458955452261818 -5.7172622693225428 27.79119399728518 144 196 165 1.2882760594663492 11 447 10 427 20 425
6682 1.156308972046342 -5.5676808016562651 30.686738969540649 171 215 138 0.34211727715245788 9 455 11 516 10 468
6683 9.0428667547923087 -4.6521138385343344 22.896919670073764 69 85 54 1.5135529263530856 9 483 10 512
6684 9.4140987919032444 -4.4834588149848713 20.774869638619286 175 193 155 1.2204042046519561 11 465 10 515 20 289
6685 10.111347016125748 -4.2237339362995439 21.703512726065945 109 126 67 0.18961504577814875 9 497 10 590
6686 5.3784554376040212 -2.7968058041032959 26.771834271281815 124 164 140 0.94942100031916621 1 5287 10 745 20 640
6687 8.9478222328704913 -1.915767936914315 20.731651346055372 181 216 160 0.83926915933104895 6 1530 7 1563 10 826
6688 53.011752199059437 -5.6144500915330742 73.372044099351072 119 90 60 0.5217351103931166 2 5877 10 832
6690 5.1679682621433702 -1.5304504363608986 26.434585327613341 46 67 44 1.110868165454564 11 941 10 876 20 861
6691 -1.5504573142561071 -1.3818708829525352 27.766450662507687 65 95 67 0.48573933284437326 11 923 10 912 20 2311
6692 -0.37186115974587858 -0.77746085847158608 29.012207160147135 39 62 37 0.91774623666378796 1 5335 11 999 10 971
6693 1.8116612390668747 -0.42259049016872741 30.01228201037323 138 179 121 1.5384810747996833 11 1073 19 1137 10 982 20 1085
6694 13.349104288860319 -0.48158778639613709 26.541913829357064 115 134 89 1.7704400256145307 9 1010 19 1073 10 1002
6695 -12.96512331322511 -0.40754348578516597 32.148727101936629 60 64 49 0.8744599809610859 1 4138 11 1034 10 1019
6696 -12.646158771086695 -0.25861433031236386 31.425145164082519 98 103 78 0.61613276605970047 2 4155 11 1035 10 1021
6697 13.257365207188636 -0.25975781152160199 26.097728441825424 188 199 130 1.669129807379889 11 1091 10 1081 20 953
6698 -0.55110933955130903 0.23926207313542319 27.307804466284761 47 73 48 1.2175544235756011 9 2309 11 1132 10 1133
6699 1.8826866075438211 0.67333021832628681 29.889928928571276 134 169 113 1.0246697788008683 11 1208 10 1146 20 1220
6701 1.9381843962425676 1.9210696957778555 29.948122651213946 122 157 107 1.0062651812242889 11 1363 10 1269 20 1402
6702 -13.313781179415249 1.8204789374261539 28.993193987019147 149 168 138 2.1335012079343749 6 2598 9 1330 10 1326
6704 11.177791938605065 1.9724477940760137 23.632122020189946 223 218 162 0.76405380201684869 9 1401 10 1422 13 2597
6705 49.698051526649898 6.8491842982687317 70.35005102217427 84 75 58 0.30286203808665668 8 2755 10 1427
6706 -6.2223374448908348 2.3444345474157875 29.181813827263735 125 141 76 0.60898435662503736 1 4537 11 1447 10 1450
6707 -5.6072025830547814 2.9259807380070662 29.718794957680878 31 46 21 0.68481735448035641 11 1536 10 1451 20 1529
6708 -4.9237947984820405 2.6786031809941262 29.897527473393374 58 75 39 0.54722275847037183 11 1453 10 1453 20 1532
6709 -4.6906304079720353 2.6605213631719291 29.793409559634696 57 72 43 0.68158871450552228 11 1456 10 1455 20 1534
6710 -4.0575704185716219 2.6421351963635229 29.813182470870537 61 75 52 1.0130534543571847 11 1461 10 1456 20 1537
6711 0.61343611825372812 2.7366592130117984 28.650405068242986 114 125 83 0.82307722446579312 11 1473 10 1473 20 1489
6712 -9.1999565278343542 3.3643267680686884 29.887474174692937 60 76 47 0.77245728448618756 1 4655 10 1506 20 1634
6713 -7.0825054172141737 2.9868483097162994 29.911124187611751 39 47 34 0.57684754019008266 11 1534 10 1509 20 1590
6714 0.56078762204860444 3.1982542882613325 29.785276163001924 61 76 43 0.82300980202215557 19 1531 10 1519 20 2561
6715 36.910333868061315 9.8196842276898355 70.131774791688272 0 0 0 0.12943346228916328 6 4925 9 1505
6717 -12.239824838347177 3.7269854578388788 26.299308685399602 128 119 80 1.5338659972591877 11 2558 10 1595 20 2621
6718 -14.684258775378737 4.5369427319667688 30.186358072672945 89 82 72 1.9614343131869214 2 4682 10 1626 1 5548
6719 1.0993348826302165 5.3237181134923111 29.934185097827818 80 63 45 0.57417689762072577 2 2926 11 1646 10 1639
6720 -14.288378049905265 4.9618424052867383 29.850110687740955 19 15 12 2.1495904641584129 8 3041 9 1603 10 1649
6721 -13.380624321421573 6.1136152573010136 33.592842315622264 53 50 33 1.3322705759326263 10 1650 20 1759
6722 -14.010026169644515 7.0728170101428178 32.615217620958006 144 144 136 1.92131976973213 13 1766 10 1707
6723 -13.650506898175511 7.4506262944300596 34.313741644084701 145 151 141 1.9754668908554984 11 1776 10 1709 20 1819
6725 -14.581945588971644 7.7092005890420419 35.028830415598421 53 42 36 1.1209562981346313 1 2981 11 1774 10 1743
6727 -9.2037346935256004 6.8322095718243459 28.349461591345396 59 63 38 0.65417361910389182 1 3063 19 1802 10 1756
6728 -7.8986509378945202 7.1373982391344182 24.463367044419741 254 255 255 0.82883785666838383 3 4997 8 5158 10 1807
6729 -4.348212713389505 5.4007555651641024 18.708677532538534 223 225 214 0.26457254710313155 1 4924 11 1847 10 1808
6731 -4.3152983796265287 5.8123482023880308 18.530002367314736 89 108 63 0.87679849544147748 11 1862 10 1822 20 1895
6732 -4.2915394844176991 5.6625518160358457 18.521662359460045 84 101 65 0.86363801940387841 11 1859 10 1823 20 1875
6733 -4.5081519279455549 6.4714991101149826 18.89011774036263 106 117 85 1.037772757564019 11 1881 10 1832 20 1902
6734 6.913455871093336 10.916511412177568 27.618381616585559 171 168 161 2.8260898229698195 3 5780 13 2840 14 2682 10 1837
6735 -12.08026046215136 8.3157796382041411 24.12209332719085 0 0 0 2.3073697569282814 9 1802 14 1790
6736 -12.861489115194408 -11.377854692072651 28.582416756913485 220 220 184 2.3828834477644931 9 1867 10 1897 20 2821
6737 14.239093825041657 -11.558964383083378 22.983787446263545 0 0 0 1.6426482160680547 1 5000 2 4947 10 1912
6738 -7.1725798263876355 -7.4985045438812579 25.301023478255605 156 139 113 0.64648467030489842 19 1957 10 1937
6739 -6.4071045099207575 -6.3849312063735866 24.948279637900903 235 253 225 0.64480623510323953 11 2054 10 2018 20 2049
6741 6.0861904066525794 -3.4573089958245449 25.202700319475298 46 70 49 2.6185402608744899 1 5896 9 607 10 2218
6742 62.247719883941983 -7.8108315429357011 75.817091545741889 137 112 79 0.90263756455353983 11 2267 19 2246 10 2232
6743 -14.252725381041685 -2.0975781683970243 28.861266261501701 0 0 0 0.77762822775339435 7 5631 9 2880
6744 -7.12898246494834 -0.8914305790213739 21.051158998358108 223 254 226 1.1133335907813788 11 2306 10 2278 20 2306
